11.341237 8.595304 3.858058 0.075166
-5.230171 4.765723 2.953845 0.416155
-15.467616 -13.609688 4.480458 0.358485
4.821494 0.163530 2.635149 0.713593
-14.341446 3.720806 4.096395 0.151902
14.926700 -7.089324 4.764759 0.412025
3.936035 7.110311 1.414382 0.876873
-13.629522 -14.378129 0.990366 0.248820
0.542282 7.725043 1.353214 0.649305
8.494132 -19.503441 2.016520 0.474557
-16.804521 -12.728431 1.288321 0.560699
-7.780406 -8.352001 2.163540 0.172384
11.041920 -11.243522 4.478640 0.484204
7.205633 2.205409 3.001260 0.708753
-17.371279 -4.774329 4.455518 0.823283
-11.805782 10.884029 4.130685 0.204718
19.667020 -16.051026 4.321738 0.429336
19.042774 13.778184 4.734132 0.308854
-7.914749 -18.392995 1.295354 0.745872
13.913674 18.705978 0.673885 0.641611
12.420969 13.014559 1.629644 0.332290
-6.950166 -6.046592 2.872124 0.510573
7.733889 13.554366 4.663023 0.329400
-15.027605 -18.716520 1.498641 0.209368
15.469812 -17.349282 3.608168 0.346358
-9.512301 15.382128 4.520654 0.840741
18.133459 -14.198402 2.352709 0.418744
-7.197249 0.088772 2.361906 0.700699
16.997437 -6.008666 1.686686 0.035533
13.293736 -4.964752 0.141224 0.730674
-8.026475 -5.452559 0.202261 0.080132
4.824667 10.679741 2.719125 0.233207
-8.602550 10.038740 4.607271 0.416231
-1.862918 5.899506 4.412521 0.230345
4.883462 9.415098 4.221777 0.978505
-16.573444 -16.347916 1.745966 0.528930
-6.169341 15.644216 4.196273 0.733440
-11.416465 -4.823115 4.543192 0.490985
-0.384906 1.248795 4.064242 0.748843
-6.063096 11.942277 4.731448 0.850101
13.597558 7.677803 4.611246 0.796442
-8.558948 -17.171174 1.067329 0.173204
-2.121181 -4.672508 1.233986 0.744282
3.249447 12.731191 4.372612 0.079724
-14.723047 17.337718 2.669250 0.021350
-14.465008 -4.619741 2.349781 0.725048
19.907636 9.617220 0.857323 0.014203
17.584135 0.310873 4.631937 0.208966
-3.851681 -11.104248 0.031928 0.591724
-10.003850 -17.011674 1.674837 0.487167
-0.333899 1.154207 2.445533 0.029938
-9.434609 13.131143 4.640929 0.091990
-4.483586 -5.953839 1.719443 0.512306
1.290851 17.457284 4.071137 0.446342
-8.918882 -4.252149 4.092908 0.024828
11.395662 3.091419 1.745099 0.333567
-10.649304 2.145311 4.396802 0.201927
-9.101928 -13.759684 1.669579 0.876825
-1.854329 9.036162 3.297910 0.745752
5.399797 -15.755417 1.373637 0.195881
17.675237 -5.805043 2.782959 0.923635
9.707461 2.728840 1.512642 0.086572
11.276907 -15.346778 3.869077 0.794868
-15.605778 4.420901 3.372517 0.832685
13.698865 -13.306372 0.758802 0.556325
-18.099697 -2.713950 4.357536 0.530804
-6.555797 -10.623712 3.467428 0.642758
2.349464 4.817128 0.512631 0.894325
16.331689 -6.334502 2.599886 0.941375
-1.349418 -15.234498 1.344804 0.241389
17.932212 1.348483 2.465946 0.210430
-7.411820 -8.959364 4.466608 0.395378
7.523633 -1.984466 0.184700 0.519056
17.938103 -13.829447 1.131719 0.014458
-18.090515 15.841976 4.731391 0.732854
3.838191 -3.883907 3.853158 0.698141
14.747310 -12.439866 1.050151 0.443089
8.153201 16.510881 1.749438 0.225233
8.023113 16.303267 2.427495 0.451468
-12.736022 3.950760 1.973626 0.938079
10.775082 12.247588 2.048735 0.575294
0.602349 -10.326843 0.879525 0.941384
4.636174 5.954011 2.149905 0.456139
19.919935 0.830443 3.912081 0.493119
-7.397363 -2.077109 0.599726 0.465981
19.022960 17.628870 1.935083 0.597382
19.607859 16.844446 1.578696 0.644400
8.958722 13.005222 4.670983 0.604337
-17.510957 -13.033260 0.531618 0.221635
1.376795 -14.117087 0.574384 0.143276
6.782981 1.016557 2.425344 0.529333
-8.622906 -6.365574 1.218188 0.164750
-15.169878 -3.405731 0.980447 0.972035
3.098576 -4.159265 2.425941 0.745204
16.315443 -14.566285 0.408796 0.487039
-15.530214 19.854786 0.194604 0.043079
16.711421 13.844956 4.845004 0.061582
10.004170 19.211529 4.073108 0.144756
13.650263 15.999743 0.218049 0.238797
10.172051 -17.271927 4.723530 0.047511
-16.124161 18.795662 4.718686 0.594771
-14.800258 2.749219 1.306493 0.646952
-18.139447 2.884978 3.581027 0.126337
8.003090 8.747181 3.198522 0.910460
-11.393233 -17.552590 2.019913 0.381365
-6.739196 -17.411511 4.404836 0.818707
7.591528 -4.580872 0.004463 0.391507
0.211772 14.929205 1.610944 0.986047
3.263043 12.625326 3.285489 0.281198
11.159234 5.174068 3.654733 0.298291
12.931902 9.815489 0.426505 0.728686
10.466181 14.434484 4.361886 0.566645
-0.810800 -13.590256 1.888494 0.189727
-11.295077 -1.350115 1.968703 0.603201
19.397981 7.034040 0.659761 0.484349
-4.980311 -7.638583 4.454788 0.150207
15.199475 15.011381 1.941450 0.802986
7.865780 5.898651 3.010527 0.266903
-13.888459 1.761018 2.770052 0.929574
16.949716 -14.086738 2.252977 0.382851
6.976310 16.398850 4.260356 0.462776
-1.137826 2.727443 1.990395 0.664171
-3.735992 -5.965792 2.293766 0.953544
3.143473 2.784818 1.015469 0.057058
18.044307 -11.164884 0.017051 0.423164
-3.009254 15.003550 0.559632 0.048276
-3.232252 0.359005 3.562661 0.036463
4.362236 -1.536495 3.612619 0.220398
-9.729713 -15.790104 2.183608 0.906186
7.161831 17.974949 0.227852 0.448607
-0.832717 2.876199 2.410436 0.700846
14.475496 -6.814530 3.302849 0.903639
-12.733009 -13.595187 3.530696 0.661806
13.643542 3.810217 0.243618 0.499525
2.446062 -11.552640 2.402077 0.814971
11.958980 6.901744 0.850833 0.509051
-14.260861 -10.931408 1.980108 0.817896
13.425941 8.109054 4.515342 0.327515
7.090443 -12.258459 2.275916 0.043267
2.700204 -8.974247 4.549763 0.542231
-11.076407 9.530251 3.379282 0.051133
5.683440 2.565257 4.122678 0.453694
8.169470 -14.335127 1.371469 0.982412
-4.042096 -13.519744 2.409293 0.114285
6.690044 5.433441 2.911925 0.996371
5.824829 -15.890040 3.630559 0.743809
-12.350031 -15.698261 2.773274 0.187264
-11.109010 -17.055890 3.668718 0.168212
18.842669 -11.369297 1.831143 0.084850
-17.948459 -4.109447 0.586617 0.968204
-7.760091 -15.802916 4.612474 0.617825
-7.999658 -10.952275 4.692502 0.510315
3.092149 -19.583987 2.973516 0.153990
-0.334769 8.667331 0.466403 0.760760
-6.834899 -19.269088 4.085056 0.305737
-13.978270 -10.069409 4.386275 0.491242
1.261587 -11.816523 0.387032 0.097237
14.220185 -1.741741 1.424810 0.643246
0.061881 -2.188475 3.689201 0.829583
-15.916943 6.409548 1.897611 0.586178
0.754355 5.393161 1.363628 0.372187
-17.612007 13.771046 4.060483 0.425888
17.451281 -19.804471 1.186241 0.776908
4.007251 12.622925 0.755225 0.267843
-13.340247 12.404470 4.126350 0.668699
-13.362414 3.428020 4.707975 0.451679
-5.688796 -12.779263 3.617942 0.606419
4.447621 10.842783 1.567884 0.055194
12.437019 -7.939613 1.713395 0.613195
-3.007553 -3.796953 1.722554 0.922881
-0.844560 6.724101 0.668009 0.457627
-13.353454 -3.169145 2.717816 0.310223
-13.463390 -5.947869 4.172739 0.689894
9.418321 -0.935524 3.088114 0.385180
10.667528 5.153360 0.092975 0.549386
-2.452526 0.969084 0.215422 0.898190
3.604582 -2.945921 3.259378 0.875355
-12.399695 3.855061 1.887193 0.868361
5.908331 -16.447262 1.026795 0.822860
19.880806 -12.689075 2.065300 0.993034
4.458338 8.497151 3.946655 0.191368
0.439341 -1.218935 2.964852 0.156334
-17.483995 -3.484844 3.809968 0.792868
-18.111039 -2.209143 0.925947 0.519182
-14.641038 11.651603 0.130761 0.841749
-3.203119 -18.062043 3.685723 0.501029
7.360079 2.906478 3.800983 0.660812
-13.033733 2.533518 0.217484 0.953545
12.761495 14.571456 1.077327 0.624270
18.753605 9.589974 3.720132 0.376864
3.655882 -16.555409 0.120562 0.482637
9.128853 4.796526 0.373889 0.369274
-5.157986 -14.054679 3.555358 0.817413
-5.179101 -9.455406 3.316283 0.740472
-17.642540 -5.590552 1.219617 0.077618
-11.153924 14.631664 3.368828 0.663862
11.807367 0.654525 3.764158 0.019668
10.628338 8.368297 3.929302 0.799562
-6.432112 6.322403 4.481516 0.650604
18.765126 -11.278728 2.009299 0.694624
11.606287 17.958186 2.816191 0.056221
19.826181 -10.905701 0.987769 0.890561
7.081344 12.716826 4.856305 0.744471
15.620306 8.685860 4.432436 0.185835
-10.332790 15.182095 3.776840 0.039650
-3.587900 -6.311713 4.460458 0.119073
19.339559 3.979665 1.352277 0.271985
-17.045418 17.362507 0.317197 0.212423
15.131817 4.779257 4.354469 0.318569
-8.235617 -11.382865 4.108030 0.434941
18.520549 -2.682767 4.913802 0.370995
-7.660392 -7.396649 3.197369 0.101663
9.578554 18.056335 0.553538 0.928024
-4.117364 -6.489372 1.125481 0.138723
18.976310 -12.344292 0.183452 0.006345
-8.018851 -6.895556 2.436160 0.887403
-2.909673 -12.916288 3.551398 0.510892
-12.497594 -8.970950 2.425353 0.643507
16.824253 -18.755916 4.772606 0.356865
14.116308 -17.847692 0.013347 0.125787
-17.405564 17.020494 0.283455 0.040380
8.166044 19.249874 0.508810 0.739182
-7.472499 8.514100 2.025534 0.907209
-11.497360 15.866128 1.555624 0.289157
-8.845794 -6.949738 0.282922 0.571164
-14.202540 -15.773064 0.431675 0.440448
11.229348 2.632160 3.614656 0.929533
2.210043 11.964707 2.886969 0.071919
-17.481947 3.915780 3.668182 0.534756
11.002073 17.667901 2.705875 0.761155
9.100205 5.462556 1.219820 0.704300
5.904376 19.565772 0.017901 0.885407
-17.099685 11.776502 4.731396 0.415457
7.854632 -1.673901 0.774575 0.331368
-12.284185 14.429242 1.660965 0.797328
-14.480957 0.594916 0.224755 0.730734
-19.828504 17.137400 2.861682 0.328378
-14.324704 -1.034122 3.515713 0.561439
-14.754527 4.024133 4.564886 0.320455
18.250549 19.655521 3.672595 0.388796
-2.002479 2.247191 1.044136 0.781352
13.041807 -0.612622 2.492824 0.359352
-19.878326 -17.163908 1.677075 0.499094
-1.510522 -4.737567 4.907902 0.186989
-6.044273 0.483017 1.279804 0.954240
-19.823101 -6.081541 3.069635 0.587509
18.663032 -12.744499 1.967331 0.546198
-7.540807 13.548156 1.336350 0.078052
11.171382 15.955333 1.023153 0.333505
-15.799237 5.910984 3.398976 0.228134
15.275580 2.134954 1.870103 0.957147
-16.623743 1.416683 0.200866 0.228707
18.371982 12.172051 2.822982 0.390274
6.082321 -15.283515 2.344363 0.469073
8.118214 -15.759403 3.970735 0.492799
-9.190519 -3.055216 1.929678 0.439475
-17.500404 -2.966231 2.132411 0.814642
0.123406 7.209457 2.396435 0.548031
18.840368 -18.763738 4.380929 0.515942
2.329701 17.436460 3.636424 0.465377
11.879948 -5.377550 2.764801 0.047344
12.338082 2.258617 0.235094 0.994516
-6.517308 12.541208 0.916301 0.758276
8.920143 -8.019931 0.933418 0.043828
0.920975 -19.034921 4.709799 0.649669
15.077717 -19.299006 1.045140 0.588289
6.091029 2.469234 1.816905 0.877536
-12.394840 -12.758748 2.743264 0.031487
19.298576 -11.340453 1.767112 0.260005
9.829620 -17.554296 3.865883 0.319137
-14.641139 -16.523702 1.093683 0.644326
1.448238 -13.786019 2.374534 0.915836
-5.278241 19.045048 0.410523 0.967803
-1.683358 5.995372 3.302091 0.976185
8.645224 18.892576 3.979237 0.165881
11.005330 4.172255 0.508896 0.629236
-14.001070 7.583828 0.936381 0.403973
-16.445621 2.479273 3.885873 0.173965
10.784172 1.216317 2.863717 0.899916
12.053215 -7.505542 2.345790 0.418478
10.793199 17.983412 4.953066 0.175456
2.483731 -16.436272 4.547097 0.197991
-14.513409 -1.749767 0.420938 0.579905
-1.796065 10.290235 0.345958 0.684570
10.379586 14.658804 4.418301 0.991465
-17.100876 16.526137 1.566068 0.896255
4.712992 -9.118343 3.739447 0.200208
-4.186461 2.489966 3.478453 0.427449
-1.491220 -5.757725 1.893800 0.104833
0.606775 -17.391976 0.579547 0.753157
14.969542 -12.943543 1.208793 0.188018
9.649785 -14.203421 0.950646 0.363070
-0.031045 9.504039 1.773842 0.748074
16.220096 -6.228291 1.226567 0.912532
-8.639652 -8.006141 4.390629 0.556641
-18.144289 -7.538589 2.733557 0.259732
13.165010 16.967378 2.059847 0.038263
-9.163659 2.345967 2.089749 0.823342
13.475164 18.528513 3.357355 0.498537
18.644750 -11.095576 3.875850 0.740696
-15.390077 13.394663 1.797647 0.659682
-17.784488 11.565137 3.626505 0.091601
8.661566 10.699546 4.531043 0.340856
-16.151837 14.452630 3.256797 0.784873
-14.316360 -17.412501 0.414148 0.740436
-11.557562 -9.801415 2.429335 0.923401
-8.592956 10.220937 2.516791 0.231268
-13.801146 -9.559702 4.473705 0.437187
-0.634764 2.387068 2.202467 0.714434
-5.513038 -0.263362 3.506568 0.470193
-4.493346 -12.058766 0.390895 0.104840
4.252299 -14.350130 1.258343 0.037356
5.674900 5.784900 4.763388 0.458661
17.813313 11.314121 0.052940 0.017816
14.055770 -16.449399 1.553591 0.226322
6.186245 9.942720 0.298444 0.992684
-10.480431 -16.763505 3.587416 0.591558
15.101780 -10.545802 2.924322 0.490342
17.676458 -0.704086 1.556923 0.205248
-17.539716 -14.118617 4.966531 0.481628
12.175664 -8.456860 0.604246 0.656013
-7.586736 7.228771 4.010212 0.190918
14.608124 12.056552 1.514697 0.674376
0.854326 10.329194 0.528725 0.729402
-7.362061 -3.361763 2.685679 0.253634
-14.710521 -7.263273 2.889461 0.973473
13.860798 -19.807915 3.078257 0.094320
0.965027 17.149363 3.783906 0.253008
14.725517 -4.526301 1.015014 0.605045
13.982951 -14.138358 4.421115 0.938835
-16.540709 18.580325 0.908929 0.808520
8.759139 3.787416 3.527138 0.988137
-5.233357 16.417610 4.242026 0.416160
-14.957792 -6.606462 0.867987 0.283038
3.386166 -13.881514 1.848705 0.848781
-8.745004 11.239216 3.940595 0.299486
-16.355681 19.296263 1.677670 0.674053
-14.054361 -9.034657 0.381107 0.369361
-4.284659 -6.787051 3.174342 0.006143
-0.994494 13.870585 2.148495 0.852637
12.811229 -2.174714 0.581475 0.505268
-9.860061 3.897056 4.736450 0.504375
3.705305 9.566296 3.434702 0.739050
-0.259309 -4.899295 1.465657 0.786264
-3.591424 19.841902 4.927365 0.030768
15.747457 -11.497897 3.155746 0.024427
-16.028230 -10.401172 2.724679 0.396634
-5.620017 -12.863886 2.699105 0.435583
1.301634 -5.467421 1.467114 0.296067
-10.059037 -10.213754 1.798409 0.282023
-6.068379 0.628400 2.847601 0.355591
-18.752834 6.408832 2.274082 0.656152
-15.092765 -19.840819 1.694332 0.816606
2.789559 -7.499213 3.396147 0.833845
-6.102338 -9.438323 1.974145 0.000205
5.224098 -13.206383 3.838620 0.619291
-8.397255 0.851769 3.785204 0.946980
-10.783767 5.313936 1.311396 0.285411
11.563608 -16.281256 1.402078 0.801458
-7.478656 -17.587423 1.558811 0.332141
-14.950070 -9.984908 1.348965 0.323153
19.017508 15.433008 0.719824 0.519845
-4.237317 8.194951 3.040388 0.934141
-15.148233 -7.940472 2.887562 0.317202
18.707015 0.039106 2.989481 0.726345
-14.839452 -0.712246 1.771043 0.776334
16.938512 -10.990370 1.533085 0.757178
-14.087886 -10.214589 1.338454 0.679697
-11.205497 13.249022 2.430137 0.990113
-3.105973 15.852527 0.750799 0.239499
12.996099 3.474692 3.592054 0.016174
-8.258045 17.797286 4.343360 0.061815
10.026289 2.680539 0.193678 0.037463
-8.101773 -12.489029 0.110362 0.899805
-13.645872 -13.976464 1.807479 0.301597
-9.739732 -11.963494 3.430357 0.240720
-9.962262 14.008052 0.648631 0.576277
9.158644 19.164780 3.735008 0.175727
5.925098 7.536143 0.979048 0.052844
-7.356564 -13.415194 2.587278 0.923575
-16.467412 -16.572818 3.955015 0.536331
-6.074611 7.784197 0.426366 0.433598
0.782034 2.418317 0.914182 0.154371
-10.506413 1.443524 2.545945 0.963130
8.281067 14.274297 4.436480 0.800556
2.675753 5.661059 2.979328 0.359123
1.727681 5.903141 0.943481 0.692229
17.056881 -2.426203 3.869622 0.565332
-6.611425 8.203271 2.436826 0.151919
-1.032326 -6.525109 3.072280 0.603216
4.320370 14.798835 4.277190 0.532748
9.843616 -17.169708 0.165864 0.370275
-5.718820 -6.430271 4.278041 0.389321
-14.259719 -16.564467 2.407552 0.561163
0.262728 -9.282544 0.535408 0.205295
0.730026 -6.331469 1.336098 0.383794
9.181941 -16.614106 0.906117 0.548012
-15.488338 1.540420 3.960830 0.522696
-2.523084 -2.085871 2.133099 0.696374
19.148741 10.859321 4.265351 0.971139
17.224933 16.641958 1.303730 0.093661
-3.845004 4.594509 4.552550 0.915669
-7.486966 0.627542 4.357520 0.495728
4.577087 12.442354 1.404082 0.458938
16.286282 5.485740 2.420292 0.659160
-7.620937 -19.495802 1.308824 0.546021
-1.472779 12.204746 0.655618 0.010700
-15.431287 -11.179345 1.963915 0.058494
-13.873511 -19.449587 0.998806 0.047135
-2.226104 4.956862 3.724203 0.405853
0.882569 7.208235 2.399899 0.672722
0.124186 19.314032 4.566256 0.801195
6.880356 -9.129871 3.084314 0.196128
-13.052759 -14.026397 3.615335 0.758198
-9.217429 15.581000 1.692184 0.950001
-5.327220 -16.864104 3.169454 0.204310
-0.315207 -0.010059 4.829189 0.410332
-8.124671 11.645069 1.260056 0.913465
-1.457744 -11.299782 1.379012 0.177344
-7.168470 -5.047695 0.423862 0.043694
-4.317884 6.416032 2.499441 0.842859
11.815779 -19.823339 2.949913 0.298407
3.342046 18.434695 0.566381 0.521199
6.576270 -3.440838 4.575197 0.023504
19.431601 -2.644344 0.540067 0.427049
12.877167 5.577765 2.014698 0.623728
14.343222 -17.599572 3.319706 0.630415
4.645854 16.937631 2.960457 0.202618
2.391268 -10.898114 2.705085 0.753826
16.727872 -11.812075 2.976444 0.931476
13.384035 -10.744801 0.354466 0.160704
-14.643531 -11.507924 3.374305 0.810790
13.490084 -11.812811 0.722038 0.191373
9.395962 -7.273857 0.339306 0.967486
3.241358 -0.902855 4.254036 0.640828
13.706735 -8.812323 2.542083 0.127655
-14.939652 -3.712932 2.179923 0.061139
18.768200 -17.076135 4.567834 0.441853
-15.202284 -9.336926 1.066723 0.755689
11.964774 -7.110921 2.218177 0.891580
5.907714 -17.412110 2.437070 0.443206
-14.046079 -3.212738 3.330406 0.517342
18.794034 5.163011 3.964056 0.470656
4.508374 0.877222 1.102376 0.599545
16.961759 16.135662 2.210979 0.026075
12.816320 -13.584922 0.979981 0.982491
-9.738407 -17.123121 3.245606 0.083532
8.293438 -13.552796 1.508966 0.424995
-3.840513 4.607166 4.744669 0.128995
-0.151458 -19.841831 2.543360 0.273255
17.154151 0.042620 0.227644 0.307463
-11.030356 -13.816692 4.424836 0.573963
-12.265272 18.100474 0.494994 0.778083
0.687034 -9.546788 2.235954 0.728312
-5.342119 -7.296168 1.756383 0.614452
-19.675585 15.081451 1.428558 0.955348
-2.556837 5.636623 2.191932 0.818365
-7.784682 0.972663 4.794064 0.255342
-15.856779 -9.167578 0.469643 0.145836
-15.770511 -15.168735 3.015567 0.638722
-14.025435 -19.273331 4.969714 0.191727
-18.019577 7.122135 1.455882 0.912437
-11.882219 15.044483 2.098464 0.432487
-8.653268 -9.659940 1.557480 0.887685
18.619765 -19.414845 1.330291 0.673875
4.616306 17.232054 2.013166 0.722271
14.147312 12.192315 4.136028 0.269136
-6.481357 8.047692 0.807473 0.321585
14.127484 -4.468519 1.712761 0.659928
-14.949020 19.812320 1.734181 0.498469
7.669090 -13.838636 3.297257 0.010617
8.210144 16.655184 1.933725 0.742134
15.401951 4.474505 2.414544 0.600206
-5.806783 9.271304 3.668601 0.661449
13.899867 -15.450293 1.211065 0.830611
3.664563 11.015801 1.363014 0.379819
-6.364592 -15.523630 0.819613 0.169169
19.575905 15.609405 3.118662 0.759996
-11.040112 8.446661 3.632657 0.980739
-3.472999 -6.893349 1.031906 0.434441
6.067643 3.624237 0.897834 0.806880
-5.653080 0.505238 0.094729 0.244095
11.708064 -13.521989 4.677848 0.252694
1.415732 -15.078152 4.554785 0.869047
9.248826 -14.506642 2.309098 0.438931
-1.651651 11.873388 4.131101 0.519883
13.869892 -18.153309 3.007352 0.766972
-7.697327 -6.939157 2.297876 0.268572
-2.063859 -3.330621 4.886737 0.385757
-14.775657 -15.513720 4.016300 0.229578
-1.056709 -12.535784 0.565276 0.696182
11.215775 13.587477 1.163493 0.166031
9.248307 12.120900 0.780412 0.217541
2.617334 -8.090229 2.996387 0.604677
0.870997 5.250957 2.287558 0.163737
1.817708 -15.281779 4.533757 0.107877
19.463955 -0.579240 4.600073 0.646049
14.902289 -14.195677 2.877285 0.127396
-13.929588 5.178902 2.401332 0.957637
12.673453 -12.758372 1.993241 0.318731
-9.346834 -1.375756 2.975694 0.070445
-6.111765 -1.478250 2.751427 0.312526
18.262161 -10.631461 0.511933 0.640754
-14.140701 14.335129 2.681062 0.000823
-16.331474 -6.185929 4.384482 0.995682
14.734556 15.762845 4.091864 0.196162
-10.376518 3.449464 4.666746 0.492744
-14.167057 -16.774197 3.139042 0.227635
-14.573794 -4.525924 2.362159 0.801192
10.760722 -19.010425 2.783285 0.727522
-14.111414 -1.212062 4.389972 0.714025
-15.425820 17.464491 0.193187 0.396338
17.006121 18.221342 4.714768 0.845606
-0.863999 -18.813363 2.447846 0.159324
-11.974729 9.755585 2.380758 0.125319
-19.145227 -1.785382 0.212510 0.087734
-18.789708 -13.448421 4.613350 0.131419
-10.049380 -16.916893 3.084149 0.980777
-7.096582 4.533254 3.444356 0.978230
-16.870568 16.931900 3.378248 0.402737
-13.404882 7.681855 3.542838 0.951939
-15.263084 -5.075452 0.896709 0.952691
-8.958582 12.098856 1.553692 0.046376
-14.092405 -10.300690 4.723781 0.610924
-8.844658 15.311959 2.827475 0.646582
-1.895785 18.133017 3.873364 0.356490
11.545197 -19.210535 3.565578 0.762174
16.727844 -6.502119 0.284199 0.743990
8.920066 9.251555 0.032358 0.231963
-6.519278 9.076005 1.230297 0.043046
2.463632 17.756741 4.628785 0.279884
5.386673 3.010463 2.948460 0.307160
-15.201232 -9.903010 1.269505 0.080478
-19.952284 0.069859 3.607605 0.910043
13.831561 18.883436 0.074061 0.299231
4.396462 4.290031 1.312488 0.481146
-4.955485 9.305606 2.515777 0.096367
8.974981 3.149384 0.442013 0.279800
-10.526921 -1.791996 4.624227 0.130388
-12.358791 3.079172 3.592436 0.680538
8.128672 11.923391 3.957146 0.677101
-6.243224 0.384290 2.712510 0.717960
-18.021391 19.013478 3.538780 0.916874
14.240026 1.987631 1.768633 0.131097
18.227604 13.701597 3.136794 0.516080
-1.982264 1.984009 0.992112 0.463914
18.148280 12.999604 3.347585 0.529575
-19.148948 8.173379 0.392592 0.879546
-15.227848 -14.837204 3.087661 0.621106
5.767228 -0.281040 2.666587 0.878173
-1.521954 -17.308511 1.704496 0.206313
16.049061 2.772366 2.818203 0.080631
16.886068 2.421549 1.551952 0.897000
9.031502 12.327344 2.283009 0.896408
12.271134 19.659448 1.165839 0.352907
8.803694 -11.262137 4.476681 0.235623
-16.152043 -10.298110 4.053393 0.053280
-6.865216 -18.081828 1.426848 0.140113
-3.881036 -0.217212 1.794904 0.016767
19.992294 -2.914027 2.533039 0.746086
13.003914 -10.747000 2.973093 0.005718
12.592802 -14.558007 1.406795 0.979420
-17.264935 -2.363760 0.378089 0.384457
7.735095 8.053254 0.545553 0.500111
-6.172314 5.766253 0.634582 0.161075
-4.627748 9.089823 4.224002 0.379185
12.877728 -6.286246 1.650124 0.857901
-4.480778 -13.911324 0.440386 0.820856
18.631060 -18.043329 3.904652 0.232059
18.245554 -1.766276 4.799834 0.276095
-14.101382 5.489619 0.047446 0.981625
-9.419210 17.296969 2.743853 0.570980
-13.658495 19.685680 2.753628 0.433159
19.696010 11.869168 3.543755 0.399916
3.283967 -14.946692 3.598669 0.044174
-0.168116 -0.949208 0.321244 0.489890
13.572487 -7.410701 3.834482 0.754065
4.761625 0.627873 4.505658 0.184564
6.061930 1.089987 3.768070 0.383196
-15.178926 2.119548 0.827566 0.578489
18.606924 -12.516430 3.203521 0.574908
13.975343 -1.370923 2.044714 0.959868
15.398634 2.936686 2.784860 0.883118
-6.049582 -19.920473 3.223353 0.549531
16.861227 19.851018 2.842318 0.888918
3.795775 -2.858469 0.919603 0.091916
-11.374074 -1.231824 1.299323 0.110822
-15.052576 18.911300 0.797830 0.936074
-11.777932 16.345773 0.505042 0.744182
15.111661 19.052622 0.827231 0.306923
7.522486 9.991190 1.878923 0.463150
7.761987 19.351774 0.996021 0.789940
-0.444590 3.979357 0.225303 0.417038
16.184578 -0.422759 4.787724 0.094544
-6.178870 -3.434938 1.643247 0.796120
19.941272 -3.995188 0.820744 0.096272
18.391115 10.604918 2.675957 0.610384
-11.737838 14.766586 4.102212 0.019094
16.360549 -12.133043 4.963954 0.240475
15.949990 -11.171800 4.662547 0.791982
