ply
format ascii 1.0
element vertex 1681
property float x
property float y
property float z
end_header
12.361059 0.134574 10.140446
8.364072 15.019647 6.395675
18.760113 16.465821 9.764283
10.681449 0.127598 6.043630
15.994640 12.013306 10.570565
15.519956 10.592629 17.647127
10.288168 14.263218 12.187157
9.096737 18.960839 12.457150
6.588037 16.545489 2.040665
5.866651 11.617212 15.711729
5.502462 16.635024 4.590872
8.314999 10.948760 4.528710
17.740153 9.189534 2.168410
14.877111 8.817374 6.245519
4.776654 16.793370 3.631449
16.961141 2.042921 16.928757
2.205955 3.995188 4.240695
15.321894 11.496925 1.333483
18.520917 19.848850 10.268156
0.952658 19.047704 17.102423
18.286418 2.422809 9.136008
14.174768 18.366032 19.228227
9.185977 3.585100 10.355228
16.026164 8.406234 4.185613
4.210438 9.672370 9.249269
8.764932 16.705091 12.235345
19.822363 4.607812 8.581623
13.764309 7.098230 9.961622
19.186675 3.557992 15.789901
4.872373 0.774368 17.172302
4.391956 18.606812 16.208188
5.640921 4.209053 15.699153
4.151239 18.148374 12.607094
4.394418 19.887142 17.948369
16.108612 19.842742 10.446711
17.537826 7.591399 9.525587
12.402340 5.302653 12.411817
3.324922 11.003287 9.424327
10.065025 5.657787 2.866661
9.391861 6.127561 14.665158
8.962367 7.259508 9.489138
6.908217 3.863320 8.357026
3.953086 11.893367 11.466592
10.753142 13.572284 1.212910
1.510519 7.616842 4.596524
12.087006 9.055435 19.799769
12.930998 6.642375 6.197645
1.044353 14.237921 16.500269
12.317255 4.819288 9.132276
5.072469 4.973743 14.745485
11.143235 11.913482 15.801083
3.634920 11.937289 12.525750
4.873499 0.982584 1.945935
17.732721 6.101769 4.658036
0.130102 15.956367 11.444572
15.690018 10.255084 16.248386
6.668334 16.726906 0.763250
9.271501 0.137334 0.333786
6.453901 1.727198 4.108283
6.911070 17.800842 15.934874
17.500695 11.792427 19.594940
3.008249 15.081014 8.336138
1.244275 4.533331 14.314598
12.097557 9.333063 3.803527
6.138948 18.045674 10.993529
11.809752 0.771975 7.069527
11.001318 3.998887 13.586477
17.648664 8.689504 0.966324
5.723257 12.589509 19.940866
18.345625 2.989555 9.234618
13.680322 2.428894 3.009151
10.869671 9.201754 15.529578
4.804335 13.364496 6.870222
10.787898 10.663941 10.782969
0.179668 12.212294 18.916966
5.403721 10.960105 17.649092
14.152255 17.037202 4.053531
2.346145 3.805214 2.994869
7.941376 2.059660 12.750879
0.389368 12.683345 18.688818
2.256809 13.672978 14.307434
7.099708 18.215333 5.604306
9.346026 0.932848 6.676700
5.123978 2.265243 11.940394
12.470715 1.143061 17.492058
12.570647 3.562098 14.803155
16.850965 17.161117 6.757338
10.950173 19.165049 9.475946
19.315438 3.550887 10.276502
19.290488 19.790466 10.232922
4.961243 2.716106 13.497584
13.827985 10.633801 19.813288
11.101101 7.495559 9.599345
9.687334 15.991898 12.976972
12.068806 13.831258 18.198957
0.384706 19.886139 10.112085
7.681272 2.539818 16.133987
14.737184 14.183507 2.993054
7.707616 7.451025 18.334718
11.688401 2.555713 5.155202
10.419950 10.601148 19.464459
7.812896 18.014524 9.455282
11.900823 12.407164 3.730399
14.733162 6.480487 11.611217
6.902130 19.867399 19.691827
4.421476 6.278212 12.592380
15.228754 18.913367 2.774375
9.288261 15.983544 16.323336
7.395653 9.300696 5.249828
15.680506 11.688148 5.287781
19.366688 15.133836 11.318978
10.288688 6.387300 6.096599
4.677295 5.011186 0.629814
5.692553 19.679502 14.152341
17.241729 11.659632 18.240046
15.905289 3.091005 14.902228
14.010681 9.185794 15.705130
1.739065 7.565081 2.058700
18.235827 13.546387 17.813927
19.836287 17.454858 15.535755
13.922603 8.432688 11.829192
1.654667 6.552306 7.066601
7.934506 1.693340 12.360988
15.771779 3.674692 7.647613
3.753708 5.852729 1.401461
7.701465 3.202990 4.803332
3.696887 1.418575 8.630151
14.067442 12.896861 13.649665
16.728147 14.074593 14.590626
19.348723 17.820374 6.357809
4.639323 3.911144 7.559924
4.439235 14.222691 6.933882
7.621792 19.228475 5.451552
6.718123 3.595256 10.854876
18.536570 10.406817 4.818819
8.739964 13.782583 7.890239
13.214539 19.925303 11.746885
7.262609 1.347986 4.262306
13.299522 8.145517 7.454888
18.529184 16.644645 1.858056
12.865028 15.861641 16.095935
3.820101 6.348617 13.322228
19.648184 0.681806 11.439088
10.279003 3.918971 12.311027
17.257238 16.990238 5.109602
0.651093 11.558450 4.739027
3.988420 8.957452 18.106343
1.772363 7.013980 14.149826
11.440642 2.732491 15.393023
9.043851 2.510945 8.596031
2.995347 3.169573 4.743935
14.831113 7.406946 14.799974
10.179658 11.898320 17.783214
12.236386 16.291667 10.339213
19.295950 4.945373 6.273227
7.570694 7.390004 18.421172
17.927516 9.043670 2.742289
6.225293 4.387759 4.596277
0.925816 5.648531 9.631264
3.390774 14.994922 11.345562
2.523449 10.457731 17.421330
14.218434 18.720449 8.466577
13.640258 19.229568 0.306479
0.131023 9.749453 6.228608
2.652116 10.867028 14.739079
19.249008 1.776825 6.026120
17.907279 6.193936 2.324202
18.659747 14.801824 16.409278
6.095503 18.348187 18.093029
16.629278 3.990205 5.803322
12.463380 16.551318 1.059164
1.245584 6.777750 11.656424
1.773289 7.566715 9.538905
5.393772 10.351728 16.302141
13.827368 7.054182 18.886912
0.148221 16.265274 13.402625
1.416441 4.438728 13.928756
11.180162 17.693971 1.191490
12.885836 15.987791 18.208263
1.527396 2.965643 16.050907
17.018886 16.719555 10.442761
18.344933 12.299909 12.075334
19.895485 16.435556 0.819847
0.969867 8.470210 2.296797
5.981332 19.867248 0.465246
7.964245 12.169408 8.712370
8.523841 17.113084 3.134139
2.664427 4.923126 9.191569
16.570924 13.351920 10.068253
13.741075 13.874738 17.922060
6.844501 13.180013 17.174226
2.561038 4.023873 16.559115
4.260896 10.644889 13.809582
6.196047 7.446838 14.256860
12.446293 15.250046 14.822397
6.123427 15.672616 17.478857
5.899058 17.894740 3.452067
16.696334 17.960027 8.900940
6.839427 9.361829 18.154399
2.169494 3.709269 6.280272
5.828012 13.426406 3.129704
13.730137 12.108251 15.120274
15.382040 6.811130 17.242766
6.909634 5.071896 16.946127
4.493610 5.054220 8.096749
11.827582 13.817240 15.888271
2.588038 19.138457 10.190164
12.203091 18.924194 3.364857
5.853608 7.972229 3.057834
18.003551 8.473790 7.853479
15.551923 0.800150 4.735776
0.800621 10.572431 11.385329
14.707705 9.000302 7.763942
12.450723 9.826190 2.707416
12.638133 5.086305 6.280221
0.220019 19.793743 9.432842
11.297427 4.020686 9.898457
11.290999 9.378202 2.398016
3.316764 16.434959 17.056998
16.546530 14.042266 4.173208
4.388631 13.279829 0.602222
6.219776 8.055596 6.124221
5.711256 1.026557 14.083279
3.963822 19.768803 18.509261
1.701224 10.171860 7.114829
0.895097 19.070096 12.499259
12.691375 0.273610 18.250565
5.062313 7.457490 5.133858
16.794960 19.022650 15.973298
14.189207 0.170135 5.207268
19.409633 4.734055 10.501540
17.743941 13.926235 15.413317
0.437634 7.509905 9.402762
19.856643 14.673564 17.451301
5.768580 6.884290 17.823169
18.565453 11.911236 6.539228
14.863135 1.624702 11.312513
9.400732 17.540571 18.351991
16.665915 10.275588 7.504352
8.937407 8.425300 14.046078
11.698072 12.504693 4.407334
0.158648 9.950077 8.440486
0.550073 11.111593 15.614601
16.286656 14.903069 4.435353
9.055191 3.498556 3.394071
6.333811 15.295650 0.754834
16.834363 2.458927 9.253717
9.027222 6.149527 17.549426
7.435135 8.373353 11.351353
0.695023 10.331606 18.178868
1.905482 9.712721 8.159967
4.791964 12.492493 18.338439
2.443287 16.877005 15.022972
8.437285 1.893364 4.429143
2.721582 7.705652 17.429887
15.149002 2.292392 17.134290
11.596946 6.045238 6.484375
6.747670 19.396717 14.467724
11.595636 2.193850 17.167286
9.099105 14.986963 1.584975
2.162610 3.138309 6.759520
12.396587 9.380765 17.115023
16.896757 5.779668 12.858707
1.509530 3.726671 14.322726
13.952553 11.542655 0.508425
5.666610 13.966037 4.179644
0.905258 6.490993 10.059045
7.936636 5.242187 12.412700
14.126890 7.386905 11.245460
17.108886 3.948423 16.542980
10.962142 8.146285 2.132617
2.423947 16.057889 0.736796
17.837034 9.818299 8.646224
14.358780 13.554356 15.373623
7.512051 14.528604 0.451941
2.239838 12.280463 14.597380
9.913428 2.300261 17.671445
14.746865 8.073986 2.916068
9.800136 13.430265 6.496996
16.972804 13.232437 4.628775
11.732457 18.976618 7.153338
8.596526 13.802208 5.796387
10.624145 14.077817 16.330836
16.068067 7.798625 18.325319
14.761707 13.193732 7.984333
4.186653 1.639769 3.153439
11.022650 14.562386 6.781645
13.889017 6.543770 7.402975
19.663144 4.592896 0.820128
9.460124 12.263658 4.971637
10.533554 10.217859 14.574893
10.589330 7.490097 17.789305
14.589892 9.299697 9.146250
13.792686 11.473243 6.329425
8.577825 10.373254 19.664877
17.261960 3.402315 16.254194
14.370470 9.533247 13.135777
18.095855 8.756495 11.355019
12.923722 19.672602 0.537672
9.867976 11.564758 10.315591
5.969470 1.017477 16.402424
5.349826 15.804489 9.760722
13.786745 1.258876 2.332842
0.175400 12.279071 15.150383
14.674832 9.300386 1.653117
9.874049 5.439018 9.020266
7.411547 19.679557 19.236264
5.754997 18.678419 4.554936
6.661312 9.681746 9.683087
17.123856 13.386382 0.975656
15.012173 12.604312 18.667345
12.872443 19.668236 13.821629
17.259263 8.351353 11.616787
14.402679 16.054369 5.436804
16.134884 1.385958 12.139907
18.820069 16.379307 9.344869
17.094591 5.044952 6.178789
19.209278 11.821931 0.122770
9.918196 15.704550 9.038470
14.223945 9.257158 3.371423
3.671935 15.489632 12.651690
11.391718 3.880529 10.009375
0.770555 17.793354 8.436403
13.826787 7.597343 5.177914
6.929406 13.241337 18.637201
2.901128 4.268528 13.405926
8.693573 14.864820 2.799883
2.684962 4.094542 5.926064
4.975867 14.800692 16.757934
10.578979 16.585581 19.190524
10.117716 4.103280 11.351673
5.028270 17.655589 8.060531
7.200711 3.008529 9.862224
19.044042 9.064746 3.546788
0.219275 0.192712 16.690618
13.723332 17.188503 16.056358
13.454472 19.727104 19.791491
3.253584 11.071640 5.630475
17.838189 18.071059 7.011554
8.971310 3.664975 0.032456
7.309857 10.032501 5.308039
10.425574 7.713501 17.553898
0.725003 11.568595 6.253378
14.340171 5.531692 3.454398
1.751609 10.996050 12.274009
2.411546 8.970972 19.984218
13.358421 0.960583 1.198529
18.526509 16.814244 18.434143
14.408093 9.197057 5.399053
1.024347 17.564573 14.352526
5.060847 18.613177 7.691191
2.822146 0.640930 9.100417
8.067130 3.972151 12.955315
14.303676 14.559036 18.499750
9.773595 14.738565 12.484294
18.158584 15.065513 9.976311
12.446116 5.720033 1.426736
12.743126 6.223847 3.860272
6.013135 7.073189 3.572724
19.504448 13.362359 14.170557
13.002979 8.319177 17.461145
13.500427 17.685990 7.421905
19.567944 11.289138 12.546122
14.259758 4.663648 13.913042
16.131803 12.761956 14.201762
15.859426 15.598209 3.703773
13.161910 19.093085 3.450184
13.743890 13.063654 4.064151
4.599173 3.487360 5.989304
6.730627 19.535201 15.168683
15.967419 12.588135 0.670935
5.080236 3.152158 17.203713
3.382512 16.430242 16.335368
6.057055 11.522447 2.518603
15.086199 11.351246 11.998388
8.529337 15.702977 2.481962
18.387603 6.407488 2.934946
12.579690 7.877860 4.040529
18.731740 4.577784 11.355907
4.466998 8.183090 14.340597
8.530243 0.545043 12.782346
2.305885 9.263072 0.840622
7.171108 2.998783 6.155475
5.519290 5.934728 16.120063
9.368983 16.463098 2.592776
15.407654 5.131083 19.185862
1.244660 2.681190 12.813126
4.742124 5.130578 16.386552
15.350713 16.045162 3.686443
14.911414 1.610804 16.847066
0.163913 5.593536 18.484671
9.805687 5.536676 13.156629
0.237556 1.911558 14.081769
10.714838 6.719568 14.524441
6.629953 3.029147 11.690440
1.991965 14.065604 7.296713
19.314272 6.204631 17.882790
5.477930 13.002441 17.658330
8.124123 16.130350 17.921009
12.420675 1.329809 18.351280
19.421146 19.123591 3.602516
5.502382 16.746493 4.836821
2.711405 18.349109 18.941923
16.002985 19.849417 18.822789
10.978076 17.846840 10.662115
4.098309 4.836066 19.036167
9.167269 3.953781 8.963253
10.137385 19.735449 13.065160
18.568762 8.806394 12.093876
16.516494 9.563918 6.684465
1.875489 18.455978 10.473889
17.094189 15.066295 4.282698
11.975066 10.929736 2.386529
3.154589 18.308166 10.187526
5.602178 15.866860 1.115152
7.104741 18.110669 12.775752
3.954998 10.866456 4.965969
1.043677 18.169722 10.063688
18.438346 3.236008 9.490966
3.116481 3.058417 8.885329
4.003064 19.377401 8.109303
1.575037 1.592271 13.401107
6.337383 6.157838 5.047970
14.792624 17.701753 4.796014
11.807087 0.068361 6.958780
7.649345 3.499456 12.739873
16.138349 17.769507 14.049176
9.726646 0.896339 13.825103
10.139330 4.107673 12.867805
16.685626 6.047418 9.062786
15.066510 15.510342 14.881424
4.248999 7.012851 10.380631
4.823521 1.799021 10.299910
16.332511 13.543663 9.071581
13.578179 16.983468 1.296115
4.640971 0.567499 16.927976
19.630805 16.914747 7.894844
3.230840 4.854531 16.373043
17.509537 19.145928 10.104731
18.471672 9.809110 10.758251
9.153856 11.630371 4.716673
13.025193 3.136151 11.565854
16.790462 10.061432 19.743854
13.134776 9.054662 13.302770
13.412390 12.248556 7.636485
10.986033 5.435757 1.992963
19.780598 12.452890 2.003751
4.457013 12.490531 11.520376
5.408554 15.119349 10.958640
15.897303 0.719032 14.189431
1.186827 5.749927 5.312033
4.688383 0.068535 0.832598
10.988918 11.840568 2.392263
10.025000 17.426579 1.501658
12.601255 11.890102 18.296606
6.289789 16.000489 11.434557
6.660240 9.613820 12.481090
8.990709 7.281792 9.844122
17.938960 5.838615 3.128594
16.720897 17.547961 10.539372
19.087753 9.389060 2.979030
8.698383 14.997021 12.343058
11.594008 12.124341 16.701310
13.337091 6.113779 1.067331
9.677878 15.754267 9.210786
18.268782 2.651421 11.195844
16.669232 12.233336 13.365492
0.091651 9.492256 7.215649
3.823903 17.025073 9.086927
14.652304 13.952112 17.041821
8.374197 2.317152 3.867418
12.634516 1.990660 11.465506
18.212991 18.260367 6.314853
19.838438 4.484122 15.801857
19.442544 12.753938 9.749991
16.923449 4.223771 0.611569
10.073131 2.941200 9.703410
12.352434 18.953240 8.105416
19.787660 15.466377 7.503770
5.284037 11.281971 17.786857
8.209554 18.391691 18.364498
15.336385 17.057308 7.804525
8.078862 6.452477 17.845656
8.404036 11.739229 3.520720
4.951881 11.999684 13.321340
0.032344 16.627510 5.189897
10.087767 15.795382 5.152535
11.713008 3.140076 16.058657
4.975988 17.481159 17.774771
15.517252 6.867497 8.242793
4.167297 11.706358 4.909286
1.012820 12.626752 9.095042
18.607065 14.700021 17.201915
11.978405 7.610326 3.500031
15.167985 6.857672 9.376418
10.974154 17.576327 12.913683
1.930602 6.140853 15.142020
18.357944 11.120723 14.786146
0.659396 2.609688 4.663650
4.304058 15.530777 5.989183
19.199043 6.481810 3.331682
3.913481 1.540798 19.087023
3.934402 13.298783 4.010679
2.353815 11.834607 0.656704
6.564318 13.878457 5.839261
10.050665 4.745094 6.748291
10.574896 16.479300 17.014584
9.166246 17.947237 2.245187
18.890751 6.531389 18.287742
11.932527 7.980541 18.701166
14.395979 4.572154 15.136116
10.946575 17.556913 7.559543
4.142981 3.851546 18.393535
8.855666 13.100458 19.038349
2.785947 6.514604 4.476586
14.220601 1.984777 2.785405
18.338460 17.383764 18.471661
4.104109 15.787092 7.786073
17.672487 7.896893 18.887500
13.469099 5.177538 19.363981
5.157640 10.543198 0.832142
15.833404 18.767382 18.579452
6.947464 2.535237 6.025250
0.825165 13.927227 5.406881
9.161752 16.057196 4.167875
5.760287 3.167971 9.944461
10.385017 6.981170 6.300501
5.726086 7.813576 7.579151
4.731680 0.113426 17.289423
1.280786 15.298051 0.403633
7.760566 2.680739 15.504048
19.654323 12.286749 9.684323
4.330068 11.592442 16.301847
4.156415 5.807594 3.230474
17.966007 17.940540 14.619906
6.291345 0.099250 19.685832
10.511793 17.021352 15.807316
12.929698 11.766390 15.207472
6.509333 0.031498 5.120229
11.543775 7.040519 7.919363
17.501701 8.786778 9.178682
3.916069 8.956371 17.714471
7.476612 15.011107 15.522642
17.740511 19.635858 18.819416
0.867713 9.820308 19.540015
3.322332 6.609254 2.810843
11.891929 11.312241 5.296368
9.012752 19.958034 1.783935
5.885198 11.461780 8.806164
2.348777 16.928838 6.612177
10.121735 19.157558 0.898703
2.405674 19.261499 0.403569
9.299962 4.832884 6.248714
6.320212 3.227720 15.444214
0.005252 7.095278 7.606760
16.674472 1.878273 11.927173
16.535721 14.753645 5.434067
1.287301 10.593621 16.506920
8.698371 6.853125 6.191554
4.568603 15.348374 15.335513
8.934965 8.117006 4.721597
11.641776 3.544983 6.188933
5.454086 2.100963 8.399816
16.543269 10.551179 1.910728
11.550766 6.496012 0.809679
6.574754 12.389716 4.660981
15.882020 4.226651 14.798556
19.704119 0.676472 10.120206
19.383546 13.242887 15.869225
5.725026 19.932185 19.155789
4.988524 10.401705 18.216420
5.817578 1.865120 14.840921
17.966455 15.837582 14.595729
4.345804 13.424867 0.368147
12.111918 3.497159 2.118826
0.822622 4.628166 12.057227
7.380093 0.967682 17.602744
4.153700 15.015474 10.337866
5.231982 12.606727 10.766429
7.500594 17.133293 19.376187
1.703937 8.339359 12.095085
2.342643 13.330538 2.171908
19.878213 16.676528 17.009036
7.995455 8.850986 8.006616
16.656767 10.812947 18.656019
18.664201 1.560835 12.773968
15.701110 14.865198 2.073449
10.817989 3.673631 1.391708
4.026265 3.385875 11.973631
14.302090 5.281379 11.196686
10.028970 9.218188 0.481344
9.282766 11.751052 7.152051
16.483857 0.286114 16.486137
12.539155 9.284352 14.126694
4.006170 19.389453 14.085592
2.001464 0.920677 8.335668
7.141017 19.056479 2.581538
13.254820 10.313786 6.069183
6.794373 0.220332 3.707634
13.687923 18.230925 4.399931
17.753856 18.579314 13.222403
13.497394 15.209508 10.179978
14.302954 3.397197 6.946395
17.260184 11.542989 2.751251
5.074349 10.159831 13.522523
7.646879 6.617025 4.419503
7.043931 14.269291 6.998180
13.166199 17.347633 4.564446
11.433363 14.323383 11.675194
4.073783 5.635179 17.569497
13.232426 9.162940 5.846638
19.091556 16.016207 8.997677
8.662971 4.606089 4.904471
1.438527 6.460914 6.111477
2.299144 15.591014 19.703499
1.609052 19.438602 13.566138
5.877194 13.033332 13.501439
1.493137 8.145151 0.737828
9.435699 14.404363 10.969163
15.847282 7.516906 9.638341
18.523394 16.238608 13.534168
9.348050 0.192505 17.563134
11.270484 3.086391 13.013958
19.284180 11.199660 4.613868
1.897694 12.656305 6.161514
13.705764 9.697081 10.220062
12.020188 9.665645 10.857249
12.103695 6.659301 15.464826
11.166815 17.799181 8.592636
16.901130 12.090742 8.432460
9.704452 10.604017 0.105069
15.372794 4.240382 16.368745
10.197341 15.265438 1.691406
14.560296 1.754699 0.029679
1.082473 12.705317 2.221490
8.304345 7.452394 19.887094
4.217378 14.764111 12.478120
15.104075 11.793653 9.025667
4.912761 7.533527 15.497663
5.354567 1.788733 17.320909
6.999030 17.651357 3.688484
9.496105 11.899575 2.309635
5.863262 13.825143 14.090827
18.999832 5.846599 0.878981
9.002121 12.746265 14.194209
0.702023 4.247391 2.936065
3.606552 14.789755 13.962109
2.690316 1.837537 14.966645
1.779783 2.742558 15.542091
10.888747 3.873742 19.533765
9.992337 17.555904 17.963706
4.613038 13.468134 7.733814
9.011445 4.320460 7.203008
5.418821 19.117341 16.593649
16.669792 18.905647 8.390081
10.387466 11.027683 7.439296
16.407641 18.424879 6.838263
9.584097 16.703235 17.778182
6.326699 2.242749 0.186823
6.139465 5.628614 13.216393
7.337540 1.509412 7.494224
2.771766 6.882679 11.047611
4.845551 9.540746 5.463213
14.679459 2.090521 9.780286
18.496100 15.920016 14.598290
3.769281 14.087316 14.667262
9.770375 0.654512 13.892353
1.123790 14.601589 12.727251
6.965597 4.748413 14.729273
11.565329 9.446590 11.248884
16.132830 19.842563 0.862914
11.078349 3.572238 19.170615
3.956846 14.080101 17.833990
14.443889 14.797867 8.766781
15.399023 5.077649 15.924229
3.945309 17.294803 18.218878
9.004338 1.976114 17.479903
13.340095 3.709824 18.852259
4.692617 18.563451 6.446591
10.276312 3.391587 5.254966
9.690746 12.832549 12.642525
5.218745 17.157779 12.894640
10.766088 7.983659 14.414101
11.369616 12.199958 16.045894
8.939543 14.420933 15.355704
14.764818 5.213920 11.767596
8.524958 13.246838 16.305633
7.801095 15.939519 7.185753
2.335701 11.632609 8.161640
8.479550 18.126910 10.884872
1.336924 13.081752 8.009579
13.037385 9.548896 0.593626
16.305308 5.337362 5.969792
4.610451 13.269284 3.795877
16.066354 4.485420 8.455193
15.326021 10.277729 12.712475
1.235907 12.646362 12.993162
19.070855 3.113464 2.847061
9.549997 10.479514 18.083889
5.407532 3.763201 16.789868
7.566164 1.749828 6.006584
16.996366 16.912973 0.479395
0.829988 10.605215 12.413462
0.304850 12.359789 7.899489
16.097368 16.368981 13.489189
7.670933 5.547788 18.738655
13.729466 10.885947 10.105876
13.010332 16.290518 6.364294
15.538098 5.096107 9.256177
6.599805 4.936474 3.961654
8.441506 14.140877 8.672340
7.779123 11.324994 3.795845
7.384201 7.618683 12.392912
6.069460 13.211241 0.243793
0.051077 1.215616 3.237139
14.983630 3.531294 0.920007
18.305723 10.097528 0.654975
17.564368 16.056807 9.439191
13.867850 1.825996 2.474892
4.797121 4.771164 15.365052
7.596967 6.402373 3.510273
13.709738 15.440656 19.319652
1.531661 11.758791 10.398201
3.377478 12.199930 17.051046
12.996435 11.388069 0.209895
8.972894 11.988199 5.374044
9.892176 8.195712 19.280499
4.176084 10.010219 19.809262
15.216013 1.709486 0.311309
11.387493 2.711483 12.023027
9.549830 10.221257 9.417091
7.758732 6.132375 4.983135
9.715579 4.041090 13.807453
6.460871 14.052527 5.545550
18.823038 4.057430 2.785809
15.610207 17.832379 16.070618
12.574709 16.705782 11.405677
17.019009 16.337171 18.099963
17.973826 13.888883 19.179761
12.758826 16.519039 12.600324
7.278004 16.216133 8.335130
13.704168 15.823695 7.852417
4.927149 15.305358 8.785094
2.394488 18.895206 0.093309
5.997367 15.573425 18.627889
7.763325 5.720911 15.035852
7.806392 6.186352 19.079566
18.269692 12.799919 6.123121
13.831821 4.365212 18.659722
18.811264 18.443423 16.143418
7.133394 7.990203 6.487774
10.960821 0.744529 6.041333
10.239153 18.253361 14.258724
9.813163 7.286774 11.379923
7.262017 10.518046 7.955144
3.397530 12.065626 12.526149
8.338676 11.042134 3.542787
10.757231 0.287759 1.007542
9.053987 16.966934 15.324115
18.910921 10.318679 18.418550
0.891563 3.531531 10.897781
0.720093 19.391833 11.468855
16.993816 12.155437 8.568728
8.813727 14.683416 1.221937
12.133199 7.489402 1.876543
17.346439 6.703953 13.927922
16.975591 15.519932 1.864874
3.630952 15.575509 13.553287
3.737198 6.958835 12.189286
13.854015 17.094350 1.240735
12.905572 1.558182 1.160158
4.537571 12.870385 0.149880
0.213988 9.753818 12.965890
0.782106 13.761773 8.230040
6.243899 3.149894 7.411623
11.615552 13.335414 3.763749
7.171185 17.073745 19.051084
16.598291 19.825712 18.663270
2.101154 7.320995 13.238620
1.534969 10.617019 3.974728
8.977345 0.267100 18.660722
9.069466 8.464248 13.618238
1.675167 11.928269 4.977586
1.029767 4.913339 12.748685
16.223121 8.779984 17.008423
4.156405 4.267060 18.122805
5.940436 0.477173 4.094422
15.357103 5.335120 16.414310
10.823392 16.975180 10.157270
3.222921 18.952280 17.516194
11.550475 3.017542 17.521413
0.583994 7.126063 4.124346
1.904557 7.856257 0.293786
0.349560 13.604291 2.372852
11.817584 15.988321 8.393216
5.893262 11.339768 13.267398
19.134150 14.661279 18.663665
1.615772 13.848495 3.217649
2.956644 6.116225 12.103355
0.987468 11.386412 8.778645
7.281232 14.183901 16.089125
17.217800 1.898336 7.997419
18.938469 4.534844 9.708750
2.067085 11.050847 18.326459
6.744351 19.471400 17.535574
15.155578 2.473513 7.184687
15.327440 18.984627 19.778461
2.829684 8.977008 19.456730
6.713310 16.827562 12.745677
13.323250 17.345646 7.977603
5.419018 1.206643 17.468119
3.119822 11.279263 6.509863
5.831774 17.265618 4.186340
3.478205 1.852693 7.247136
8.990483 3.522310 2.783576
16.889103 13.411347 1.411739
16.008143 6.991454 16.226023
11.096146 10.961704 10.987437
15.648058 14.544235 11.929363
17.850558 14.027285 11.562956
13.423443 0.190139 15.823370
12.487164 5.037920 6.612126
11.473901 8.841782 16.089408
3.618749 18.249937 9.491409
7.291136 17.564557 18.878286
19.394654 2.083742 8.424477
9.726815 3.296139 13.340966
3.782639 9.639284 12.309469
18.634928 5.793880 7.710876
19.505419 18.449260 7.001840
19.834680 2.943172 13.795070
13.572138 12.542828 16.692293
6.480756 4.842331 10.706879
7.424211 3.647267 5.760109
19.115848 8.032036 8.730142
3.112830 7.789639 12.761478
13.487988 8.786920 17.970972
9.116186 4.475885 9.221129
8.463084 15.585474 18.369991
3.517025 11.877263 9.090764
1.360289 10.477952 4.183774
2.583001 8.170216 11.646908
12.316922 12.788602 1.577841
3.815437 10.211093 3.796827
19.984668 6.445127 8.691470
13.477268 4.431508 0.226240
2.856048 14.617234 19.350270
15.409233 10.110330 14.741000
9.407039 15.226722 10.914854
15.596057 15.333508 1.055033
1.746447 5.542841 6.037073
9.390423 5.440685 4.230671
1.456523 2.822571 4.504899
3.463499 13.445708 10.630673
16.668944 5.044388 13.015381
3.495609 15.467670 8.008211
18.429684 16.683012 7.964896
17.642075 5.291225 9.990100
11.199968 8.855087 7.787113
8.357113 14.067677 7.581926
0.126749 7.235559 8.990626
10.498147 8.214325 9.955029
19.412748 7.404551 17.425642
16.485990 7.337836 1.492925
11.801753 14.667857 12.428634
17.452927 19.162410 7.769537
1.665919 15.089707 9.728889
2.437853 0.063778 10.542320
0.198282 13.686850 12.437565
17.751948 15.404674 5.435503
0.355432 11.016961 15.072489
19.520616 4.342710 14.943414
4.398592 10.972878 12.319169
18.796661 2.619759 19.055358
18.431530 15.641516 9.120838
16.919612 15.443125 1.497428
17.423614 3.846086 7.080125
3.130891 7.296426 17.846559
11.022548 6.221554 14.978909
8.613325 8.146531 2.539936
17.643674 11.298936 19.419452
18.368879 5.231133 5.066974
8.397133 5.593644 10.739163
14.222644 16.249464 15.724132
3.347761 12.329356 4.568079
10.022166 19.959464 0.130514
8.204653 11.527036 1.060673
13.117997 13.470439 4.599212
12.021730 10.808004 11.174909
10.164846 4.510327 11.937295
6.075363 0.803039 13.184242
7.182011 6.047035 18.781867
5.647483 6.621233 0.323537
0.076145 6.491798 3.089632
9.161979 12.457855 9.249391
7.447974 16.883128 8.248793
2.669031 10.560017 3.496676
4.595139 19.258054 10.195173
17.413544 5.705589 9.107286
4.649562 5.177204 13.839632
12.949093 14.439758 8.687253
14.321004 18.758766 14.194614
6.212979 3.251306 5.817334
14.612239 4.675988 15.204185
18.868907 0.817053 12.922149
6.399380 8.234472 8.909662
14.868779 13.029991 0.176086
4.147458 2.513472 10.089111
8.068529 13.321626 18.314969
9.305428 12.001857 9.170304
12.411597 5.748192 1.995743
19.502131 1.592759 5.268832
12.162593 11.107654 13.915360
5.242356 5.697086 0.971119
0.075398 17.564386 6.605162
2.338845 0.357113 13.639532
12.535105 8.882384 19.890602
2.808635 6.034027 8.445941
17.085592 9.527565 0.099821
3.814468 19.008120 7.198207
16.141431 19.904656 0.328288
5.026322 6.359246 6.710934
8.405436 10.341167 14.231301
17.734030 9.903589 15.894809
9.813820 18.376867 13.767122
4.996368 9.745550 6.187923
16.897714 8.779141 9.690715
2.758958 10.033019 9.641151
6.339146 11.468291 4.205819
0.450945 14.707307 14.372608
5.477181 3.390234 6.520976
10.668044 7.183597 5.480188
6.543077 17.584178 17.892693
4.844588 19.965852 13.073858
7.127371 16.255852 6.232457
7.220261 4.631054 12.948691
13.899365 13.666007 7.486138
0.205630 16.986114 12.289064
13.703262 14.036240 4.944490
7.109882 5.004193 0.457327
14.494723 1.324392 9.748698
4.282787 12.055661 18.819461
8.187104 17.777889 8.182190
12.766122 1.578894 14.227718
9.480003 6.566713 18.037000
4.391819 15.199062 1.065097
9.043462 14.002105 17.577555
13.692229 10.444158 13.711646
11.261289 5.914601 6.673324
3.452435 11.230756 2.667645
1.720064 15.508192 15.700747
8.206278 13.359161 5.379671
2.859079 16.979903 18.361758
18.343966 2.477470 8.282385
4.571153 14.535631 5.809844
14.459549 14.491545 5.717989
5.338088 5.833158 16.937370
5.589500 5.582603 3.926937
3.366191 10.568635 14.774420
16.781040 18.856909 10.678767
18.313717 0.201511 1.550594
7.774224 6.351805 19.709370
16.881790 0.397507 14.768558
0.804494 12.188868 8.388495
15.462279 1.121993 0.204096
6.839710 0.444694 5.720368
13.075598 3.614471 14.287767
10.979479 15.960695 7.346103
10.044288 6.408479 13.460188
9.184134 13.000403 1.083884
4.093831 1.752986 18.449737
18.902823 14.201745 16.791388
7.661025 16.244984 12.968854
4.762900 3.199842 3.498302
6.008818 14.707357 5.283749
15.924652 3.715463 14.878012
0.670909 11.485801 4.769082
14.405063 12.722708 18.179376
19.298773 15.701890 12.660610
8.122481 11.774166 18.384524
10.503892 2.463486 16.565667
18.927737 17.494293 18.760472
11.786384 3.728208 13.722829
1.202140 10.524722 15.907961
17.256643 2.184293 2.954280
9.275355 4.415707 8.618357
2.372496 5.662127 15.006156
10.751190 3.115743 3.700549
18.575543 6.799298 7.864156
6.527800 13.593222 12.929193
18.943955 2.993918 17.082683
1.537236 2.366442 16.134460
8.189088 9.442877 16.941687
7.402907 1.666296 7.698834
2.783593 0.622161 7.925103
1.497258 17.548439 19.615683
10.627694 19.739332 16.829466
9.196099 3.110415 12.963547
14.706600 6.627598 15.028807
4.417695 9.668278 7.658042
19.117620 15.723940 11.912369
19.944686 11.838587 12.062405
4.081449 4.320573 3.744083
6.041139 2.950803 14.194749
11.753025 0.587538 9.290559
6.347775 15.157964 13.276926
5.357638 14.455897 4.523396
1.247363 6.342788 0.947214
18.598827 11.868341 4.893253
10.043109 0.993342 16.966598
11.129696 0.430950 12.731307
19.395827 7.953477 1.938756
1.130451 2.414703 5.479341
0.269127 5.644939 15.921371
13.392591 14.262581 1.181406
19.964729 9.251455 1.773804
19.485188 13.809332 15.805702
3.284874 14.001252 17.752376
3.524114 5.352403 8.866117
1.045791 17.670983 8.060887
14.647765 7.222059 13.383097
3.169806 8.964011 2.837311
16.179427 18.059914 14.475698
8.885607 13.857330 0.680274
8.879574 2.489154 19.743095
9.255067 6.228907 16.948419
19.807158 11.426372 3.612747
10.093076 16.395618 4.326512
15.265024 15.889442 10.637352
14.705289 14.389154 17.788499
18.572758 16.719868 18.768385
5.191300 15.947891 17.782984
13.377558 13.939841 19.914706
5.657754 17.188164 7.111184
9.069308 16.676556 9.863378
5.021425 5.809145 4.024482
6.533147 15.600505 6.945962
7.298700 15.515525 13.954126
16.332831 7.312708 8.395599
9.259513 2.392330 11.978460
19.590187 8.774977 5.286373
7.076170 5.450117 15.776653
10.779731 9.119459 11.210807
3.000375 15.257080 11.623920
13.827691 11.573416 8.905388
1.639237 15.249295 19.068957
7.451547 17.822698 5.080902
6.409291 14.098586 2.553293
12.939169 11.424212 18.441577
8.064411 15.203305 11.915594
1.838493 19.967414 2.220927
1.174455 14.717182 9.709018
4.536768 3.717910 18.386478
2.930825 7.222470 4.934739
15.831075 6.610203 10.744606
11.562420 18.981519 2.500591
8.756935 0.747287 4.479466
3.654186 13.267168 0.687497
14.043742 9.925464 9.238612
0.506618 2.452274 3.944112
6.992912 3.976813 6.865812
7.358942 11.379972 14.966326
14.605967 0.209389 4.067708
4.888432 12.109479 12.872626
19.594934 2.732246 3.480525
16.535659 6.102585 12.711727
9.569218 15.363443 16.317504
2.361262 8.203079 15.381301
7.439934 16.088503 6.182558
11.367676 2.045885 10.686724
19.305662 16.313659 19.833000
7.220223 8.414233 19.642779
15.305218 3.610513 2.682102
2.774164 12.556597 3.181696
3.204189 7.382575 13.332093
14.726741 13.949404 13.712820
9.927550 11.980860 19.213589
7.086816 19.845465 13.046673
0.954887 15.339135 19.375508
9.284348 12.447352 8.289542
17.621150 15.748347 16.087340
15.744258 7.051867 13.927842
0.477903 4.859789 19.587063
12.472274 13.484217 6.988744
11.831988 1.734891 0.899629
18.889837 2.834444 18.592729
0.973437 17.657647 12.146121
7.081332 11.393097 14.426894
8.673400 13.350585 5.363533
3.419212 9.661596 15.128919
7.904969 0.846391 11.790710
10.567261 19.504289 4.676755
16.099709 13.540031 16.764681
10.332194 13.603906 16.288880
7.621594 10.775374 14.840238
14.411920 19.525127 16.348928
6.893573 14.039009 18.317330
3.069255 16.666536 2.560931
12.812714 17.094919 19.414809
2.229055 9.375704 15.063329
5.815773 3.202754 18.843921
17.311721 10.920581 12.864359
14.043073 10.941094 13.991321
13.263334 18.064279 4.067506
13.991030 3.202867 3.036629
13.336428 12.443050 0.944514
16.750841 8.202658 7.776542
12.200754 18.180301 16.185205
18.816475 10.225220 19.615676
1.389294 12.767702 6.855458
8.208515 9.883656 19.444386
5.435402 8.747939 8.040659
14.764319 11.049933 2.041518
17.807600 7.969592 0.697812
14.864585 11.592791 8.876124
0.545041 1.370640 6.308669
15.566933 7.373423 10.939789
5.916143 13.460762 16.040061
13.585204 14.006949 0.804698
15.954095 19.338807 17.258476
6.148609 5.296970 4.424629
19.302125 2.573349 7.545066
14.798997 7.795851 5.818183
18.576022 12.180654 17.676567
8.640676 16.477714 7.046853
2.208212 13.280026 8.416464
17.406948 16.707916 12.466908
0.140013 18.014982 9.861838
9.378328 11.151940 14.646398
8.573574 13.471549 1.837095
13.320322 8.838133 5.312637
4.044607 19.813024 16.227035
1.860502 14.642454 7.520467
11.519252 10.743574 18.279898
13.659050 10.204499 2.647293
14.875777 1.611406 15.173745
4.862968 16.765590 0.460565
9.797356 12.606799 11.860198
8.174714 8.026089 13.130272
9.799790 2.271624 3.209007
18.761302 6.923297 17.006598
18.245477 10.984508 0.693055
16.892769 16.048085 1.290026
17.934939 9.952583 3.733291
8.059697 8.437649 19.043577
14.119888 12.967679 10.630542
5.068448 11.735459 6.106282
17.904777 9.137777 0.657895
13.221128 16.809887 14.775832
2.809107 12.482784 10.042695
7.219351 11.603097 1.800452
1.959282 9.154765 6.975487
11.052411 5.211979 11.795651
7.996339 12.858289 12.527374
3.325558 14.568935 19.703890
11.070858 2.354477 3.550796
3.086053 2.484981 4.616704
2.021841 1.484069 14.863921
12.559096 12.437707 18.442902
4.502319 18.307648 2.284123
19.334304 19.811142 1.278905
1.768610 13.692893 14.476638
8.508745 3.501581 0.081809
1.279734 11.243507 0.172534
18.876647 13.130670 14.691034
18.814512 17.061253 11.211312
18.068788 2.606444 5.994484
4.328794 7.000614 16.896082
3.399443 3.905189 17.966052
14.477530 12.270542 5.984614
15.563227 9.332775 12.513394
11.066880 10.506721 10.944545
18.786965 17.176764 3.131277
6.333345 1.752487 8.627575
15.783548 0.117214 1.152915
10.174379 7.826172 3.569847
4.038028 7.942332 11.241366
1.572801 12.362935 6.638654
18.757102 11.348297 14.793212
16.262288 10.813012 18.106447
13.319994 17.458206 6.598425
3.896953 15.928429 0.577381
3.833147 8.089833 16.774328
6.737651 12.777929 5.582937
0.315111 7.597445 14.525677
10.044819 19.440183 11.065697
12.749595 9.329426 15.404586
11.189695 18.148150 10.127175
19.770792 3.263828 18.217376
16.930602 13.357907 1.242917
11.620558 13.550985 1.640455
13.297488 8.544285 7.834998
2.546976 14.458894 0.319929
10.619940 0.713147 1.888436
17.893847 0.435499 19.881199
4.795431 12.400879 13.755032
7.048486 9.861575 16.098301
8.920748 0.490383 8.726657
6.876138 9.927723 15.272411
17.984864 5.306162 14.867315
5.552615 8.259534 18.961206
3.569667 17.555695 12.039277
10.476465 8.547010 4.956214
2.921053 2.336720 13.912564
9.994170 2.114596 11.756873
0.039788 0.756814 5.442084
1.260699 6.615895 13.232804
17.269387 2.123332 12.078010
4.135929 19.468882 16.932443
7.025307 11.591822 16.460476
5.127284 16.773376 14.196176
16.914367 14.318093 11.506302
14.982365 14.630615 3.321654
6.580879 0.387015 19.159683
1.576290 8.094756 9.591571
10.188850 4.657555 8.285989
19.461565 0.100727 3.795752
9.570117 12.599251 17.902020
17.634923 5.694662 9.393241
4.531140 16.357335 7.428314
5.735625 8.802684 12.189458
17.759749 1.113153 1.587053
4.394311 5.300633 14.622459
14.056199 16.874081 8.167366
13.156352 9.149564 5.669351
0.324994 18.410061 5.020119
2.096289 10.573742 13.018395
8.666323 2.420090 11.766198
4.070518 1.280051 16.011037
11.537269 2.646578 17.960803
16.432071 8.147101 1.434576
12.358757 6.280334 7.544360
7.248165 14.434268 2.784645
19.504230 7.396108 14.364978
14.368315 17.149095 3.944507
1.248143 9.321687 2.211159
10.384173 18.074807 3.596256
10.925075 0.738053 14.752962
3.686772 12.131868 11.556547
2.055138 5.226319 18.503052
19.476726 8.581728 11.413781
16.597612 15.554506 5.514493
9.042330 13.146855 7.264427
3.868593 4.268105 12.780548
7.318696 0.960350 11.587130
12.163119 13.528718 3.399163
5.249247 15.603599 5.690346
13.767818 15.992599 19.616012
7.957706 1.789044 6.533163
14.793942 2.781573 16.118042
16.983033 9.513543 10.517977
1.693734 13.901158 0.794107
10.913662 12.570249 2.242520
14.252682 7.558686 17.132270
4.116740 4.067086 11.601693
5.923751 4.534505 12.771278
9.793428 6.990489 5.716051
11.821525 1.961785 5.396316
7.192336 18.807437 10.637245
0.122566 6.109624 10.717451
9.929632 19.287983 8.012321
11.718943 13.918399 3.422228
10.332601 16.790336 5.346513
0.808340 9.916585 0.503992
18.207908 10.059172 14.767455
10.366758 12.364211 13.329865
5.697256 9.653699 19.969073
17.784105 15.192507 4.444315
0.386160 8.566572 4.771471
6.851089 4.917795 4.542561
7.316692 0.958737 15.391939
10.088410 18.462795 0.506536
12.042398 3.162592 12.543544
3.720418 9.388014 17.048049
7.056836 14.352621 17.858309
17.228540 8.902819 13.104596
18.878966 2.042281 16.283912
19.361642 14.822701 10.577983
7.365097 15.625014 11.381080
15.643909 1.206975 0.503690
18.114272 9.880804 0.135079
17.468518 9.156104 13.470440
0.372136 8.861569 10.205139
1.362301 11.727357 11.408771
19.761595 19.672446 13.197318
18.862515 4.084792 1.712872
10.803523 4.653398 11.689761
10.273703 11.502779 2.609307
18.525809 14.266709 16.103736
11.618163 5.030489 13.218677
13.060903 12.321454 14.221278
7.005148 3.575194 4.383478
3.384523 17.269181 0.161773
7.091039 18.755404 6.502254
0.856841 18.463043 18.897180
4.867067 8.722173 9.073062
18.743363 6.577770 11.062385
1.561057 10.035888 4.817048
16.422957 13.798584 19.872115
1.186944 6.081753 9.726630
9.762547 11.030536 16.762153
4.365297 16.122010 14.923161
7.365827 2.192032 4.370098
3.881915 7.363382 16.314029
14.177872 11.393732 9.990659
1.269678 6.096154 19.152144
8.213373 15.887216 13.601881
11.313645 14.620306 6.844951
12.311887 0.977497 6.802377
19.226949 1.624067 4.343946
14.372582 13.551182 13.138965
15.382288 6.020771 4.858270
15.254475 11.301653 6.617833
4.347285 15.424110 3.466722
2.089023 6.036397 11.075573
17.103851 16.390659 10.128599
9.517687 6.991937 16.815067
14.410570 15.379608 11.691254
14.908054 14.512525 1.300636
2.384762 10.663495 9.366388
18.507787 15.765491 10.073740
17.369614 1.298534 17.580437
17.897950 2.249589 14.021869
15.296656 5.531951 6.443697
1.044039 1.202983 1.140877
0.759809 18.120835 2.855080
12.373039 12.135671 3.099233
6.532489 8.146528 8.150523
3.553643 3.274270 19.276337
0.612262 8.039114 14.432016
17.367529 7.215150 13.943155
10.694785 7.311311 12.011814
2.726967 16.915952 12.192137
12.054055 19.754509 9.184674
5.706592 18.875327 4.521783
8.855778 10.551285 11.793587
10.149973 7.850748 18.914297
16.629146 14.552072 8.846938
19.826349 13.918258 11.098300
19.261942 17.111338 15.853466
8.835866 7.381234 8.645451
3.843089 4.386318 1.741153
0.043477 8.265127 18.185425
13.816926 12.926570 3.869617
13.636639 18.249696 10.100083
18.656215 10.873007 1.035132
19.868727 17.043997 0.475895
4.999677 18.040583 8.357676
7.108741 2.342011 4.314924
1.601399 16.200816 5.905556
3.438738 6.184907 13.238726
14.034064 17.251025 13.846231
5.381975 1.832897 8.106614
6.895141 9.194265 13.275545
5.871681 14.989648 18.006652
17.102602 4.414216 0.344806
12.813405 17.647430 14.002908
17.441602 7.684143 12.027754
14.536402 7.785307 2.697208
0.303073 6.074183 4.339941
18.942903 2.703999 0.296565
17.957728 11.825221 7.391053
11.558226 19.765694 11.949000
2.888388 15.636678 10.345877
18.744154 16.179315 10.614454
18.267666 9.963626 6.864444
5.540584 4.019103 13.261498
8.218259 7.430931 8.500309
15.400739 4.865560 16.212186
13.319631 4.281703 16.648369
3.881904 9.725003 14.041325
8.252694 5.255468 15.012350
0.661604 6.887798 19.812300
19.941640 15.851663 1.517003
17.370301 19.520976 5.007126
3.316199 7.811877 19.682086
9.293751 3.816841 16.974985
13.947317 18.312652 0.724766
13.218325 13.964384 19.873129
10.656568 0.603222 16.971776
15.073267 9.918625 1.139572
11.983836 4.379324 8.093254
15.640764 11.348348 0.262749
13.258428 18.059177 0.105774
12.532468 1.764602 14.777348
17.611055 10.902015 6.566676
13.782750 16.478607 13.648296
0.767379 3.881485 1.822166
9.842594 16.394452 7.584256
8.622453 3.475387 5.240185
11.341346 1.126131 15.920423
16.863969 19.232700 12.304639
1.175668 0.566408 8.229699
10.059133 19.715927 16.975197
4.830069 17.774019 17.977552
12.414885 13.955931 13.347286
9.674541 13.868179 16.808245
17.570776 9.647175 6.676756
17.206463 19.003839 18.487959
3.558554 8.698895 18.731722
13.366304 2.933411 0.479728
7.575328 18.719700 10.862284
8.781607 8.931930 10.200158
6.669769 6.831584 6.613565
6.053924 0.621238 6.420569
6.071385 8.653584 6.718714
12.452376 4.453413 8.820953
7.066699 10.336460 18.678104
12.329426 14.928104 3.375178
4.174836 8.980211 1.715475
1.455228 18.505313 7.311015
14.024368 14.017260 17.061653
16.529133 14.296402 19.934435
17.113904 2.958928 6.510094
0.118944 19.278069 3.151748
9.815276 4.895125 18.726812
19.089302 8.282596 2.296346
3.217554 1.098944 18.829824
10.103355 4.637345 5.406204
5.235611 17.156677 16.416203
9.080162 13.043206 12.025415
6.927964 6.587288 11.281756
15.671155 18.918357 11.943182
13.371363 2.517321 15.649032
3.238786 10.699358 1.033243
5.776058 1.055630 7.157470
10.124763 16.619876 18.730753
17.000617 0.714382 4.065926
19.491215 15.848147 16.821013
13.364288 3.489759 13.298991
14.347687 1.003023 11.980530
6.775267 5.697391 4.194452
16.275421 7.343993 11.038212
2.037582 10.410971 2.108249
7.381351 12.994669 5.346726
15.139794 12.591084 11.386730
6.567652 7.076863 8.635571
1.644324 7.741925 17.328071
10.693195 11.748377 1.134317
8.536049 10.832155 15.525712
5.957495 14.880610 0.047488
7.506916 10.663688 18.343084
3.932726 7.714685 7.540959
10.745648 7.230428 7.512334
19.182877 9.907343 11.321370
2.783226 2.303930 11.563004
14.823141 2.993446 4.749268
11.290594 11.303724 19.687914
13.916544 6.865301 0.843624
0.899376 17.757107 11.708898
8.124733 16.561710 1.144621
8.975988 2.737343 15.439084
5.027672 2.022776 11.730670
6.535101 15.640287 5.401558
12.366258 0.755076 1.293039
11.965709 9.982559 6.741293
8.199348 1.310828 5.549157
15.323917 0.102865 16.477244
6.907731 2.221131 15.393589
18.174215 19.922856 9.448466
19.034457 7.170132 7.926594
2.963803 8.259777 13.827727
0.076867 18.153888 19.799816
11.254911 7.448703 9.204308
7.878693 19.769649 3.327926
2.648544 16.826048 6.332281
12.274370 18.846067 8.195210
14.833657 15.424414 2.331202
4.836111 10.627095 5.741453
12.227331 9.693541 18.171072
12.796055 1.844763 2.586461
15.192772 7.941531 19.492364
6.797033 16.852869 17.960927
10.825498 6.227865 19.697125
3.377191 7.137396 18.354567
17.137849 14.006590 7.096810
18.215691 5.485374 16.784380
7.238889 7.959428 19.606060
8.862641 17.973095 1.637629
6.448160 11.593971 11.575679
8.760059 9.385705 11.898380
18.210102 5.898635 11.185311
2.542604 14.896812 0.101382
10.908791 13.682620 18.173951
12.359923 12.263403 7.019363
3.523126 4.554263 6.072409
0.238222 19.656896 1.526504
12.503681 1.609011 6.131357
18.848547 11.629741 19.633146
18.950145 4.121143 1.848841
14.844676 8.078659 18.334575
2.508346 8.388335 13.267481
16.199620 5.731544 2.988354
12.334047 2.842963 1.616718
7.556892 7.083834 0.178292
2.778185 15.171900 6.611558
10.818832 1.175353 8.634894
17.464736 16.096185 15.192831
3.355003 2.170065 3.972056
0.410471 10.778436 4.738730
0.954735 18.550885 15.447070
10.710908 11.613179 6.035476
11.093739 18.202437 0.152280
19.382288 5.762594 17.772841
1.272974 12.450742 2.458479
19.963807 4.496152 4.291320
14.475499 2.083067 13.798330
14.573342 9.164265 5.953004
8.488979 2.527832 7.111932
6.585671 17.505023 10.332730
1.172151 19.850156 9.273509
18.364628 2.184779 6.700180
9.422550 8.803654 5.915788
5.563438 9.908909 13.399666
0.777024 1.615028 16.531422
11.071302 2.702550 13.508008
12.040879 11.746131 4.181539
15.760032 16.049808 13.261614
15.630556 3.545924 18.439990
17.957056 17.269191 10.579147
2.532342 6.614668 3.440959
18.630857 9.620736 6.140063
5.018225 13.265080 7.411989
9.407662 10.562137 10.910744
8.613094 15.804881 14.240675
12.502595 15.723584 19.812327
7.758621 12.305413 15.354676
1.253169 3.667615 7.088368
12.899659 2.904999 1.564197
3.299090 7.022323 13.296533
6.983411 3.340602 10.635970
4.681264 3.099944 2.942986
2.019777 17.300122 0.196345
14.683758 12.209479 6.743435
12.673200 15.425961 3.045120
11.485219 16.957542 14.463874
14.957705 2.456354 9.200898
16.924045 15.198217 7.199650
11.139713 17.355246 17.268964
17.388832 3.470135 8.639684
9.332520 1.719425 15.689216
2.401523 19.572600 11.341519
13.347086 7.990093 3.214460
1.052358 14.487305 10.361288
6.909473 13.915457 4.718616
3.016512 9.263442 16.192696
12.688981 15.561629 17.687859
8.270596 10.073510 4.130192
7.879155 13.915048 12.515703
17.366947 15.365759 10.845583
1.415791 1.431231 8.607004
9.709245 16.500193 2.514613
9.233023 5.694600 6.612184
3.336829 14.510350 8.310456
17.430878 15.744961 10.210807
8.934831 1.924144 14.441065
0.224484 3.069601 2.758533
3.090901 9.277252 1.793315
7.967101 16.212372 8.368581
5.406073 6.987565 11.410467
4.871913 18.036301 2.523800
4.046865 4.001034 18.130850
4.002400 0.174750 6.467155
11.625136 0.442300 3.757159
4.288448 13.947227 17.089439
6.258280 18.848828 7.853623
14.895696 6.981983 11.803966
6.227670 8.216504 7.876838
13.526741 17.786069 17.117406
8.099035 16.802683 3.774952
8.180163 5.257412 7.887334
16.444814 1.428071 0.476964
9.186211 0.565740 13.454420
0.828762 19.584762 14.281259
16.967934 17.656417 0.891768
14.508026 12.570044 19.969882
15.573309 4.090906 18.759460
11.294587 0.753728 19.875028
18.263732 3.583935 2.986244
14.682596 1.037502 18.061001
7.641249 1.627681 5.127550
1.879302 19.084638 1.608570
9.381873 9.932602 15.111321
2.424412 16.626092 8.462171
10.091580 8.175835 19.951218
8.839007 10.461270 4.607412
19.323929 9.735471 16.253794
8.368444 15.936667 12.952158
17.238133 12.668354 3.320983
19.915236 5.807441 4.230958
8.049037 4.554056 18.272847
17.352628 19.721438 4.418101
14.612105 5.825128 4.217894
18.228903 1.456039 14.629966
3.615366 0.569195 8.567714
5.029495 8.394731 19.225868
6.161781 7.765817 2.655169
18.354661 6.820707 10.419875
8.584484 10.599199 2.093094
18.979184 9.039853 11.238887
11.648765 12.394571 8.998492
11.400788 12.601483 4.563585
9.111536 6.192830 14.958658
1.874769 13.183985 10.886042
12.248981 7.098482 5.840712
5.070509 8.630885 12.525672
4.510912 18.622183 3.087894
15.037677 6.599133 3.922354
10.645011 19.423129 10.260102
10.586840 3.559432 7.302124
19.919291 8.865265 4.024313
6.026727 18.214234 19.154566
9.339328 14.008488 11.275811
3.684521 5.821359 14.043412
11.101938 12.371424 14.547710
0.880512 0.153284 16.734830
13.157585 12.731652 18.654167
10.422949 8.159791 6.778414
5.902862 11.648525 11.698746
17.731089 7.555315 17.438565
14.645743 15.470445 9.433811
11.771367 13.272616 4.986520
1.545297 1.391691 7.456040
5.856177 3.218344 7.222224
10.937367 1.945495 19.262637
3.746236 11.704385 4.354676
4.751806 6.796781 0.705673
13.224856 9.646542 0.883483
0.708122 11.827038 19.869110
16.507892 13.710503 11.370350
5.944301 16.114202 9.772842
0.568208 0.897589 14.921289
9.154439 11.730473 6.589119
0.475689 0.426709 8.215087
8.854392 12.518832 17.915530
2.910739 3.834038 8.136191
4.059503 12.951382 6.667133
17.302317 17.376454 16.922317
16.452291 19.431866 4.096003
18.729287 0.509635 4.576239
1.903565 16.663741 13.428694
9.918093 17.514241 2.762023
1.492435 13.369646 5.023601
13.736920 0.638611 16.296313
6.929862 15.715660 4.996607
7.177601 15.594650 13.716253
9.684874 7.236953 15.859205
12.923217 9.137594 17.241176
0.218326 3.268777 3.090926
5.592142 16.461698 13.174561
15.951090 8.434885 15.228853
12.280483 6.676776 12.677323
1.368060 2.345953 10.471588
19.555436 3.886455 7.438486
14.187173 3.200617 17.249814
0.832366 19.473522 12.721954
0.065719 12.874683 4.972180
4.583862 4.630308 12.482297
10.996493 9.763575 17.030730
19.794546 0.846313 8.079682
17.191159 5.832064 15.024364
8.251285 13.260280 14.642748
13.995313 19.599365 3.965809
16.314606 11.361320 3.117592
5.453352 2.250274 14.187143
15.828366 12.783236 1.180982
18.703402 13.815566 1.095248
3.930549 5.729014 13.690230
17.249063 16.585450 8.006972
9.895870 1.968908 17.367559
19.118487 1.942337 12.920642
10.883902 17.488090 5.696957
6.175115 19.268856 16.816001
14.724890 5.444577 11.314132
19.630998 2.027175 11.530711
4.130685 3.773745 9.439849
8.101207 15.561464 13.276578
19.933699 4.783490 3.071432
11.047099 14.474278 19.525292
15.854630 16.144349 19.669808
13.622501 1.709446 11.420370
