ply
format ascii 1.0
comment compared
element vertex 1000
property float x
property float y
property float z
end_header
-3.229586 -3.729437 -0.017719
1.340008 -3.961262 0.006369
-1.358472 2.101450 -0.006710
3.523653 -2.911630 -0.010958
2.565527 -1.932272 -0.011045
1.105132 -0.247725 0.004335
-1.357978 -0.506487 -0.002226
-2.900682 2.085791 -0.016820
2.761519 1.234318 0.004780
-0.135909 1.443962 -0.014396
-2.752500 2.140543 0.001398
-3.048254 -2.073873 0.002385
-3.345991 -1.776667 0.008856
2.771612 -0.620023 0.017817
-2.710128 -1.925378 -0.013647
0.266423 4.849379 -0.000525
-0.484536 3.140519 -0.002763
0.796109 -3.353453 0.004337
3.771549 -4.944058 0.002157
3.677474 -4.572167 -0.003525
-0.489239 -2.559365 -0.004409
-4.846337 -3.857087 -0.011165
-0.735562 0.333381 0.009879
1.061935 3.579952 0.004592
0.577648 2.367502 0.009178
1.513361 -2.843909 -0.003104
-3.459243 -1.007007 -0.006568
1.465351 0.078942 -0.010783
-3.173484 3.102058 0.003589
2.505240 3.391216 -0.010398
-1.609124 4.097183 0.018487
2.098954 0.092453 -0.013076
-4.521344 1.942747 0.002737
-0.921400 -3.881996 0.015669
2.050345 0.652890 0.005991
-2.731295 -2.513082 0.001757
2.952870 -0.682831 -0.009685
1.307797 1.340505 -0.013818
0.875618 -2.430141 0.007701
-1.464511 -4.478149 0.015061
-0.175485 -4.897661 -0.004388
0.973493 -4.778405 -0.011391
-0.275379 -4.916503 -0.024582
1.983133 -3.896449 -0.009808
-0.663031 -2.605113 -0.001137
-2.977268 -2.787785 0.015991
-2.860662 4.867966 0.006731
-4.941962 -1.939939 0.003051
-1.990423 -3.725792 -0.004001
2.489176 0.455625 -0.005832
2.941627 3.579575 0.014056
-2.975325 1.780604 0.002007
4.590440 -2.039179 -0.021026
0.024028 0.616162 -0.006735
4.169787 2.148560 -0.008582
2.067653 2.281045 -0.005463
2.224334 1.665385 0.005629
-4.149564 3.708104 -0.001074
-2.800089 3.701055 -0.000769
-4.911852 0.789366 0.013135
2.161276 -0.701436 -0.006965
-1.555617 1.415703 0.018642
2.866525 3.182120 -0.006713
-1.610638 -4.943479 0.000892
3.193338 4.919970 -0.002812
-3.693017 -3.171062 0.001234
-3.266268 -0.297510 0.004446
-1.591235 3.720297 0.004338
-0.915126 -2.749596 -0.007531
-1.512972 -0.232048 -0.011229
2.636470 -3.674178 0.025032
-4.030486 -1.049237 -0.004840
-1.487830 -3.228645 0.006992
3.372400 -1.363723 -0.016076
-4.332029 -1.265358 -0.002796
4.423435 4.931708 -0.001272
4.863168 4.948130 0.004728
-4.114318 -3.852137 -0.027225
-2.087275 2.259688 0.001661
-1.275993 -4.482545 -0.011497
2.763914 -4.698080 0.003243
0.959268 -3.946661 -0.010363
1.443657 4.654857 -0.008555
2.575098 4.408635 -0.002736
-3.820210 -3.060722 -0.010523
3.332095 -3.383277 -0.004755
2.056198 -2.594649 -0.011934
0.773417 0.155470 -0.018332
3.897353 0.697046 0.010180
2.003064 -2.784066 -0.012960
-2.983000 2.566228 -0.001787
-0.702546 -1.904468 0.007529
-0.059571 4.221313 -0.006149
-4.447824 1.567227 -0.008252
4.546375 -0.636488 0.002262
-3.714227 2.899120 0.011179
1.974613 3.179146 -0.011693
0.062310 -2.095184 -0.001501
-4.743678 -1.602855 -0.017325
4.247475 4.359552 -0.003932
3.518368 -3.352590 0.000342
0.242579 -4.578496 -0.008546
-2.710577 -0.459447 -0.004570
-3.783771 3.012099 -0.014082
-1.366075 2.716681 0.000771
-2.445717 4.195306 0.010557
0.066912 0.332007 -0.010971
4.664093 -3.999353 -0.006227
0.749535 0.886890 0.005025
3.899311 2.783956 0.012121
1.508788 -4.066719 -0.014932
-0.247535 -3.273426 -0.001688
3.546076 -4.877093 0.002831
-0.286319 0.936526 -0.001021
3.686282 3.867344 -0.024768
-2.084232 1.706633 0.005011
-3.711869 4.820401 0.015193
3.553145 -4.369663 0.001167
0.874152 4.030011 -0.010311
3.890924 3.140683 -0.005131
4.378272 -1.857585 0.017699
-4.463716 4.735266 0.009100
0.009693 -2.120623 0.006400
-1.250355 3.893047 0.003564
1.258584 3.807486 -0.006611
2.935912 2.576576 -0.002006
-2.194098 0.634705 -0.000779
0.567984 -3.799973 0.005496
2.087286 0.319717 0.015089
-3.655689 -1.432037 0.011183
3.140669 2.922170 -0.014194
1.061096 2.581292 0.002240
4.495374 4.106125 0.007368
-1.604711 -4.851698 0.006189
-3.918541 3.091032 -0.006292
0.065012 4.384621 0.029141
-4.141892 2.893004 -0.012771
4.695265 -3.698055 -0.010832
-4.613150 -4.187209 0.002336
2.535039 -4.791548 0.021168
0.251024 1.287452 -0.008362
-1.313793 1.296727 -0.002658
-4.341578 4.869137 0.010773
1.221669 -1.019568 -0.000179
0.852203 -1.680937 -0.003346
-2.191167 1.244249 0.005656
4.102217 3.256087 0.002725
-1.958900 4.367739 0.010304
-0.502746 3.031242 0.012915
0.437625 -0.733260 0.003070
-3.997681 1.349142 0.002917
4.321617 3.562993 0.002141
-1.254638 -0.093903 0.004891
-4.192208 -2.833134 0.000552
-1.127088 -3.302766 -0.000006
1.002025 -4.998423 0.011966
0.136527 2.182380 0.015161
1.945420 -3.889028 -0.015076
-4.445161 -2.561609 0.000100
-2.154594 -2.021237 -0.006887
3.192306 0.603799 -0.003110
-4.201063 -1.020427 0.004025
3.554860 1.746740 0.006694
-4.081039 -4.443613 -0.001121
3.344542 -3.760608 -0.019133
-1.392116 -0.007885 -0.009650
1.122091 -1.630352 0.008965
-3.471129 -2.041866 -0.027404
-4.338313 -4.329719 0.011874
-2.840618 3.957192 0.005212
-3.721462 1.918186 0.013162
-1.875941 -3.783818 -0.001986
0.143832 -4.349540 -0.020614
0.887595 4.748725 0.004304
2.898681 1.811726 0.012747
1.562399 -0.825439 0.009247
1.087583 2.017310 -0.006627
-0.882180 2.563318 0.000868
-0.261916 2.799622 -0.005328
-0.854792 -0.221227 -0.008193
3.421660 -0.701172 0.009554
-2.699995 -4.889719 -0.011975
-4.942791 4.265571 -0.008938
1.513199 1.033079 -0.011040
-2.975378 -2.968461 -0.014902
3.901151 4.196034 0.001464
3.590463 4.149319 0.011615
-4.232726 4.891842 -0.001849
-3.936116 3.740566 -0.015057
-0.048284 4.977844 0.008399
1.092227 -2.553138 0.016857
-2.250917 3.422496 -0.006462
2.167977 3.230283 -0.004786
0.949160 -2.690596 0.005157
-1.751759 -4.015625 0.016219
-4.746285 4.794205 -0.005198
2.501503 -2.039754 -0.013324
-2.852463 3.708918 0.006314
3.344737 -4.958728 0.007991
-0.797097 -4.789752 0.000061
0.770774 -0.341287 -0.005581
3.729487 -2.612853 0.009944
3.636230 1.898413 0.005280
-1.284804 0.655643 -0.007684
-2.911111 -4.225142 0.000491
2.751461 -3.373717 -0.013517
-0.669198 -1.119507 0.006859
-3.079580 -3.143959 -0.002622
4.044253 2.922223 -0.004357
-3.018958 -0.839298 -0.000329
-4.741928 -4.065681 0.000403
-4.797200 -0.156571 0.008949
1.223154 -4.091618 0.005911
1.616751 -3.710627 -0.001564
-1.889583 -2.603902 0.007637
-1.799890 3.595277 0.004007
-1.605061 4.246125 -0.004266
1.801585 3.262577 -0.001247
-4.418662 -1.659228 -0.001482
4.291164 -2.275536 0.005053
-2.774790 0.491557 -0.003670
4.996732 2.218532 -0.003904
-3.284773 4.933728 0.019688
2.715465 -3.684293 0.009397
-2.765875 -4.507080 -0.007606
-4.191532 1.943559 0.005709
3.749333 3.322258 0.001184
3.587513 3.463488 0.003916
-0.964296 1.784635 0.001373
2.023961 4.540158 0.011896
0.570659 0.110048 0.003456
3.529561 4.138148 -0.000621
-1.849440 4.678121 0.010422
0.236724 3.471575 0.002333
-0.146276 -1.902414 0.001215
-1.460942 -3.037843 0.003140
3.914551 0.481201 -0.000936
-3.341221 -0.469852 0.000092
-3.504914 3.777583 -0.005867
0.769095 -3.999683 -0.007512
1.574942 -2.422599 -0.009986
-3.053807 2.517989 -0.013920
-1.092826 -4.050134 -0.008797
4.465638 -1.792356 -0.001743
-2.533826 -1.128446 0.001031
1.683607 1.225938 -0.002713
2.401494 -3.418674 -0.023557
-0.518713 3.606045 0.015746
4.375260 -0.524578 0.010865
2.366567 4.170217 0.004458
-0.420754 -0.321301 0.019075
0.693352 -2.249597 -0.009774
1.926134 -3.581712 0.018876
0.921902 -4.962549 -0.009652
3.786976 0.321575 0.002387
-1.431113 -3.928433 -0.012738
-2.001143 -1.082722 0.000147
-2.861611 0.892718 0.003862
-4.622170 -2.243141 -0.001547
-4.569860 -3.247757 0.007139
3.700552 2.747216 0.000990
1.783931 4.467912 -0.005224
1.605324 -3.995596 -0.005668
1.146428 -3.444097 0.008109
3.492191 4.600127 -0.006537
-0.197331 -4.622158 0.009154
3.704108 4.776323 0.012227
-1.405550 -4.953555 -0.016687
4.267075 3.736687 0.011329
1.986570 -1.926748 0.020604
-2.428229 4.385889 0.002520
0.640849 -1.830547 0.005991
0.330306 1.543063 0.010370
-3.621012 -4.199674 -0.002755
0.912429 -2.576702 0.001823
-1.852144 2.736793 -0.013142
-4.476512 0.286859 0.001386
4.486562 4.279691 0.004981
1.414904 -0.712486 0.005162
3.769189 3.698124 0.010654
1.760560 -0.510446 -0.007748
-1.430163 4.792483 -0.005326
0.126881 4.598344 0.018955
1.757468 -1.708633 -0.001503
4.602523 3.859237 0.002000
-2.463305 3.476114 -0.000670
3.749771 -2.893196 -0.008217
4.240778 1.242904 0.016235
1.704155 -4.273177 -0.005277
4.312666 3.367107 -0.011273
-1.021214 -3.254541 -0.004507
4.530162 -4.291853 -0.020017
2.027829 -0.997809 -0.006513
-4.579942 0.769221 -0.009681
4.068728 3.549170 0.006174
-0.155272 4.742425 -0.006734
-0.396730 -0.605075 0.008878
0.664666 -4.395531 0.013985
-3.506155 2.491156 0.007812
-0.308340 0.651733 -0.002154
3.311272 -0.521087 0.001411
-4.845175 -1.907311 -0.015250
-2.270828 0.023985 -0.001338
-4.975454 -1.613204 -0.008604
-0.842887 2.570119 0.006943
2.283155 0.438937 0.025728
2.987718 3.768478 0.004998
4.451898 0.435439 -0.019911
1.085046 -2.617376 -0.003612
-2.453731 3.510919 0.001225
4.241479 0.572190 0.000874
2.753158 -2.931590 -0.007308
0.744285 1.235078 0.002453
1.956402 -1.422832 -0.012425
4.243164 3.444056 -0.009449
2.123940 -0.467003 0.006458
-1.316255 2.264414 -0.010157
2.130282 -4.044638 0.005382
-4.597218 -1.039757 -0.013695
-1.135844 4.832414 0.017648
-0.936770 3.084603 -0.007743
-3.331618 -3.400592 -0.002237
-4.769145 -2.222360 0.003306
-3.666188 -1.701842 -0.005653
1.546215 1.503656 0.001434
3.022888 2.569948 0.005754
4.882035 2.495266 0.009606
-1.536365 0.098741 0.007915
0.993792 3.108205 -0.001718
4.371450 -0.629219 -0.001466
-3.329582 -3.761194 0.023491
2.176456 0.644418 0.009499
2.549787 4.523014 -0.009218
-4.110245 2.929937 0.001000
3.612494 0.787006 -0.003351
3.131050 1.468057 -0.001353
-4.665970 4.305620 -0.012295
-4.089156 -0.716572 -0.004119
-4.508731 -1.686059 0.018116
-1.652565 4.772416 0.005791
0.092890 3.634431 -0.024912
0.323477 -1.769564 0.012167
-2.323332 -0.362194 0.010896
4.115969 -0.849219 -0.003593
-1.317372 -3.509043 0.007173
-4.544498 4.578193 -0.008594
-1.997729 -0.956876 -0.004703
0.311094 3.753291 0.014985
-0.917782 -3.106438 -0.002717
-2.261575 0.478708 -0.018697
-3.686768 -4.760386 -0.000633
3.191645 2.642205 -0.000786
4.961452 0.809139 0.011984
-1.704579 1.255896 0.000143
-1.183790 -4.482791 -0.004216
1.180375 -2.889617 0.010451
2.184415 -4.256691 0.001208
-1.079705 -2.110857 -0.007500
4.049295 1.274390 0.011550
0.600040 0.661860 0.001937
-0.496099 1.121498 0.000029
1.466728 0.492513 0.001779
4.528038 -2.269712 -0.010707
2.945523 -2.554925 -0.005277
-4.599869 -3.629403 0.000036
-1.676901 3.490709 -0.001947
-0.294553 1.164794 0.012724
-1.854824 -3.134890 0.002174
2.001876 -3.227906 0.008549
3.262691 3.730356 0.000094
2.313451 2.427309 0.010563
4.893333 1.593991 0.003975
-2.274524 -0.931359 0.000134
3.749895 -2.380244 -0.000133
2.666227 4.794508 -0.009544
-1.378212 2.972396 0.005069
2.341245 -1.982208 -0.000402
-3.959240 3.475648 -0.005020
2.893335 2.589319 0.011065
0.323306 -2.029195 -0.012502
-2.077098 -0.734471 -0.004225
1.557773 -3.140466 0.010277
1.416200 -3.889476 0.003155
-2.905138 2.227620 -0.000479
-4.696026 -2.324881 0.002510
-0.663774 3.200594 0.001794
0.695119 4.956087 -0.015167
3.766053 -4.233802 -0.003493
4.282168 -0.269649 0.016165
0.288052 3.020626 -0.006593
2.538035 2.889509 -0.003183
-0.606967 2.599972 -0.005416
2.460822 -1.510051 -0.000870
-2.951985 -0.461467 -0.005831
-1.289353 0.949684 0.004867
1.342280 4.739406 0.001973
-4.818420 -1.724527 0.007735
2.224613 4.231439 -0.010509
3.355355 -2.306431 -0.003403
-1.008583 4.890745 -0.002257
-0.520576 1.702637 0.004556
3.512822 -0.364885 -0.007932
2.756546 1.133904 0.009157
-2.118505 -2.274688 0.011864
-1.760239 -2.258261 -0.009889
1.788782 -3.864455 -0.004909
0.631981 -3.859497 -0.005319
-3.377704 -1.523283 0.026324
-1.900701 2.628555 -0.004299
3.999833 1.079712 0.016776
1.881744 -3.974154 -0.012666
4.859743 3.522365 -0.009897
2.670125 1.013676 -0.006866
4.419744 4.608556 -0.008457
-2.838114 1.701855 -0.002679
2.714849 -3.248251 -0.007088
-4.797825 -0.262166 -0.008193
1.707600 1.484976 0.011585
-0.307177 -4.717353 0.012238
-1.532399 -4.850897 0.009493
3.624044 -3.705970 0.005240
3.542677 -2.483356 0.000927
-4.776983 -0.704509 -0.004970
1.095051 -0.125595 -0.009532
-1.321678 -3.619724 0.003630
-0.843390 1.733916 -0.011736
3.320407 0.961381 -0.009939
-1.901602 -2.055359 0.011529
4.430488 -4.863401 0.019006
-3.203662 -4.223521 0.003933
1.627224 -1.083052 0.011065
1.721051 -3.460256 -0.002458
-2.478048 -1.231804 -0.013377
-1.752494 1.281826 0.006122
3.347985 0.472374 0.005693
2.618053 -2.688241 0.000717
-1.709041 -1.561775 -0.002424
0.339565 1.140312 0.009622
-4.383197 3.608550 -0.009857
-2.912541 2.532134 -0.007738
-0.141794 0.534000 -0.010081
-4.140263 -1.377070 0.000850
3.433324 -1.349487 -0.010879
2.180062 3.794173 -0.006842
4.436337 -4.607564 -0.007058
1.934669 4.879826 -0.002606
4.404014 1.643754 -0.014874
0.545126 1.811377 0.000872
1.002186 -4.620022 0.012473
4.769711 1.055293 0.001355
1.421291 -0.152219 0.015413
-4.692134 -3.942211 0.013340
2.238028 -2.220780 0.007777
4.054687 3.903145 0.000747
2.955802 0.499884 0.000225
0.838333 -0.865834 0.007638
1.713035 -4.273178 -0.003917
4.901918 2.141215 -0.018825
-4.093379 2.028508 0.004920
1.672448 1.140436 -0.011311
-2.166023 0.102626 -0.009621
1.400904 -0.662156 0.000002
1.076236 0.932711 -0.000951
-3.465432 -2.666045 -0.014121
-2.932534 4.412591 0.001655
1.216296 0.887945 0.009661
-3.717701 -1.888076 -0.011283
-2.348191 -0.503201 0.012725
3.352455 3.056848 -0.015602
-1.729085 -3.383839 0.021173
-0.119398 -2.071644 -0.004113
4.411403 1.795080 0.001456
-2.728509 -1.845108 -0.018920
-1.103740 2.925017 -0.000621
1.064578 -3.695465 0.002285
2.553389 2.626862 -0.000862
4.016534 -4.316483 -0.005631
4.154730 -4.874074 -0.009466
2.766401 3.982235 0.011305
-2.716692 0.813392 0.000308
-4.751907 -1.481731 0.015408
-1.162261 -2.674054 -0.005265
-3.584511 1.168858 -0.004348
2.103876 0.090022 0.008156
1.611306 4.915978 -0.016230
-4.560284 4.832160 -0.012135
3.365938 1.350246 0.010975
-2.512567 -0.571295 -0.011719
-0.677729 -0.088590 -0.018191
1.679337 1.824791 0.018685
-0.705812 -3.984255 -0.013938
-0.587122 -1.716479 0.001841
-4.343720 -4.247278 0.000691
-0.985565 -4.266392 -0.028106
2.648479 -3.041608 -0.002673
4.151763 -0.147467 0.004484
-0.865029 2.847743 0.003543
-0.764142 -0.145041 0.009035
2.026271 -1.645234 -0.003875
4.427720 -4.176470 0.007125
-2.329391 0.502955 -0.006893
-0.598558 -2.287314 -0.014105
2.959732 1.149342 -0.012977
1.096936 4.771877 -0.014621
-3.894137 -3.886857 0.010096
1.277327 -2.878746 -0.015146
-3.132537 -0.269055 0.002740
0.102159 4.686138 -0.002659
0.291033 2.718098 -0.001026
3.762034 3.982292 0.013636
-0.375057 -1.662852 -0.004384
-2.205576 4.920385 0.006116
-2.690337 -3.971672 0.000376
3.742519 -4.470271 -0.001520
-3.289891 3.556026 0.023000
-0.741314 4.272649 -0.014413
-3.128269 -4.094146 0.012891
2.733040 -3.865726 0.006564
-0.256274 -4.668258 -0.004795
-1.488563 -3.954924 0.016293
-1.389004 -2.905802 -0.018481
3.522142 4.700766 -0.005218
0.537740 1.678602 -0.012085
2.178679 2.785530 0.004121
3.970385 2.761394 -0.011131
4.017417 0.350737 0.004331
-1.714909 2.974890 -0.001864
4.524513 0.958075 -0.004794
-4.751241 -1.854539 0.003886
-1.231644 0.611101 -0.002686
3.957989 0.335086 -0.010886
-2.253631 3.234531 0.028014
-2.269185 4.817272 -0.004872
-1.973777 -0.889574 -0.022176
1.123134 2.633907 -0.008421
-0.616672 -4.002370 -0.012673
2.267348 2.768314 0.008261
3.949106 -1.285831 0.003217
1.741994 -4.606098 0.003987
-2.955333 -1.367538 -0.003700
4.326819 1.106428 -0.002794
-2.355071 -3.807498 -0.003709
-3.501057 4.240345 -0.000812
-4.100327 -4.223276 0.008353
0.633837 4.300067 0.003361
-3.862375 2.071375 0.005001
-3.612241 -1.702878 0.004996
-1.999695 -1.092497 0.008844
-2.183470 2.408094 0.002882
1.042395 1.014711 0.003588
3.167453 1.716429 0.011888
2.613497 -1.108354 -0.006650
-2.375155 -0.121865 -0.008557
-2.546895 4.898675 -0.011859
4.657915 -2.860771 0.001829
-4.917638 -0.821438 -0.018537
3.797205 -2.081768 0.004622
-3.002715 2.651115 -0.001092
4.472843 2.640126 0.011346
-1.576927 -2.075545 -0.006719
-0.596482 -4.186097 -0.002033
2.071206 -4.885673 0.011222
0.876691 -0.725495 0.013831
-1.820607 -0.896624 -0.006802
0.538309 4.883899 0.001818
2.307069 -0.301979 0.002944
-4.576651 -2.435816 0.003737
-4.888007 3.912294 -0.002626
-0.419331 -0.089321 0.012814
-3.681634 0.991756 -0.018897
1.643443 -4.043313 -0.004211
-2.859475 -1.170836 0.004479
-0.671489 4.442237 0.004572
-3.023291 0.895054 0.013528
0.484836 -1.554981 0.011982
-3.839465 1.256672 -0.002855
-4.768931 4.104111 0.012999
-4.488684 -2.260094 -0.007140
4.542584 0.051167 0.009309
-3.577138 4.586907 0.018105
2.084783 -3.276039 0.012149
-4.320738 2.196639 0.001058
-3.918396 1.144810 -0.003318
0.088763 1.796751 -0.015286
-0.351291 -1.487804 0.003105
4.515803 -1.861206 -0.011152
4.448355 1.842097 -0.007931
2.796086 -2.844567 -0.011907
1.021018 -0.803453 -0.004604
-0.450397 -3.118254 -0.000280
-1.438215 -4.916952 0.002736
4.470875 4.700574 -0.006005
1.029088 -0.682970 0.010693
0.790725 4.693496 -0.002082
-2.680989 -3.596765 -0.007877
-4.533022 0.873668 0.002263
4.451886 -2.990260 0.019636
-1.862647 2.900741 0.003352
-0.574110 2.837030 -0.003629
-3.853601 -3.873929 -0.015275
3.369243 4.120645 -0.002194
-4.723682 -3.053704 0.002349
3.339908 1.129773 -0.003876
-3.597150 4.856336 -0.016654
3.865641 3.823965 -0.008506
2.297726 4.565639 0.014545
-3.353297 -1.574012 0.014340
0.658180 -3.944244 -0.008866
-1.873437 -3.116531 0.006728
-3.217669 0.004949 -0.011786
3.591822 2.932297 0.014043
-0.964772 -3.498464 0.002452
-1.014563 1.597315 0.009496
-3.301133 -1.764224 -0.017151
-1.169343 -1.587979 0.006776
3.716168 1.619177 -0.000077
-1.368713 -0.330006 0.008519
4.516036 3.120333 0.009149
4.463089 -3.440815 0.000658
-3.551013 2.899483 -0.006008
-3.226887 -4.357648 0.007797
3.626741 -3.059461 -0.000602
-1.072391 1.561497 -0.008728
-4.956260 3.549257 -0.009202
-2.261282 -2.473204 -0.014772
0.976290 -1.728084 -0.005103
2.992660 0.371207 0.011027
-3.666114 -2.884272 0.001778
-3.894586 3.111563 -0.005298
4.220927 2.736366 0.008049
2.511484 -3.547083 -0.008325
0.897796 -0.361703 0.000954
2.691868 2.748278 -0.001796
-0.711456 -1.626705 0.007791
2.584557 1.331068 -0.015772
-1.281970 -4.497869 -0.008502
-2.559054 1.086888 -0.016382
2.290134 -3.473470 -0.002596
-0.803277 3.305833 0.012114
4.813771 -1.445505 -0.005054
-1.505148 -2.184461 -0.005107
4.217274 3.408890 0.008717
4.329625 -4.498560 0.010685
-2.581471 -1.033912 -0.000886
2.982212 -1.299965 0.006847
-0.669255 -2.151996 -0.010770
4.175247 4.117543 0.013780
-0.498757 2.509284 0.021487
2.443037 -4.360768 0.005212
-0.330326 2.146874 -0.020843
-2.721992 0.272991 -0.005582
-3.006499 4.008679 0.006128
-0.745688 -1.870544 -0.004215
2.554947 0.741620 0.012722
1.050715 0.007553 0.005882
1.886293 -0.104391 -0.007065
-2.176736 -0.438946 0.000323
-0.185647 -2.943705 -0.008938
-4.556047 2.557099 -0.001826
3.175324 -0.486640 -0.005546
4.898922 4.585163 0.011748
-0.931209 -2.391916 0.021160
-4.890363 1.827438 -0.014312
-3.302074 4.407171 -0.019232
1.525269 1.634583 -0.002452
1.120793 3.712729 -0.015184
2.878647 3.274810 0.000462
-2.461160 -1.398823 0.007489
2.636319 1.001239 0.014941
1.879840 -3.437387 0.002014
-1.771855 0.355259 -0.001932
0.454881 -2.695780 -0.019784
-3.527262 2.437368 0.000262
-0.474355 0.280584 0.000713
3.811973 -0.887726 0.006390
-0.788086 -2.312029 -0.007085
3.395667 4.986985 -0.004351
0.902534 -4.282895 -0.014780
-3.081233 -4.564393 -0.022913
0.811062 -2.827426 -0.011085
0.059833 4.710725 -0.015703
-1.013587 4.792382 0.003367
-3.803696 1.549277 -0.005181
-0.832913 3.801067 -0.005382
-4.272376 -2.860383 -0.009844
-4.012309 4.720421 -0.032326
-0.840835 -3.572151 0.015083
-1.946185 -3.988748 -0.010003
4.255443 -3.877885 -0.004124
-1.242942 0.731279 -0.014549
2.578581 2.809744 0.009719
0.302475 -1.333328 0.001434
2.040857 4.778960 -0.008264
-2.398840 -0.655799 -0.003922
4.419050 -3.495514 0.016782
0.300885 -0.340333 -0.000730
3.313241 1.790372 -0.001817
-1.349543 3.322258 -0.009414
-3.997887 -0.412317 -0.018946
1.737116 0.936068 -0.001600
-4.922404 -2.326553 0.003255
-0.247070 1.459165 0.010996
-3.071981 4.859719 -0.022485
1.273755 -4.509464 -0.011251
4.794199 3.865307 -0.005807
-0.355971 0.622825 -0.000035
3.174983 -2.479013 -0.001450
0.077842 4.548897 -0.001217
-0.041600 -0.166457 0.004081
4.304235 -1.683097 -0.009033
3.899659 -3.185024 0.009341
2.858005 -2.555478 0.004335
-2.037442 3.328490 -0.003198
0.450084 1.144100 0.016009
-2.761028 4.132456 0.015564
-0.560833 -2.680315 0.009329
-0.157869 -3.788614 -0.030186
3.316400 -4.939125 0.015789
3.960284 0.078620 0.007948
-0.853799 4.983069 0.020064
-4.822956 1.949653 0.012375
3.617738 -1.916054 0.015783
-3.257213 3.768586 0.008787
1.218820 2.817223 0.013487
-4.750291 -4.845848 0.019941
-1.004935 3.168605 0.002166
4.859603 -1.994732 -0.015722
-3.993064 -3.503265 -0.003075
-0.763068 -2.736692 0.003899
-1.928500 -0.314202 0.000749
4.050881 -0.751321 -0.012466
3.693401 -2.111127 -0.016311
-2.623012 -3.277817 -0.007412
-4.188122 2.622308 0.008077
1.271384 4.901098 0.015803
-1.636313 2.777916 0.009166
1.720844 -2.040630 0.010574
-4.678802 -2.551910 -0.000808
-3.666008 -2.823341 -0.017421
1.863722 -3.633049 -0.004552
-2.876293 0.513305 -0.002588
3.575877 1.054004 -0.004971
-4.414091 2.055027 0.000547
-2.845180 1.802134 0.004414
4.985602 -2.076667 0.008530
-0.669239 -1.696890 -0.002781
2.029657 1.815145 -0.019038
-3.173370 -1.505524 -0.004829
1.098687 -2.873768 0.000437
2.261061 -1.256638 0.012228
-1.855234 -2.279158 -0.005678
3.288971 -4.116873 0.005125
1.034176 3.301389 0.002901
-1.108770 3.531114 0.000439
0.576424 -2.802497 0.009305
0.767608 -4.352278 -0.006608
-3.344647 2.388274 -0.005752
-0.972676 -2.884714 -0.000119
-1.565694 -1.065645 -0.006401
-0.990973 -4.358647 0.005080
2.611106 -2.737304 -0.007132
-0.174616 2.929023 0.002263
4.403162 3.043964 -0.001002
-2.063236 -2.929152 0.002149
-0.842964 -1.640862 -0.004597
2.869568 -3.657616 -0.003391
0.460246 -4.258274 0.000960
0.470281 4.921717 0.002021
-4.466598 1.555940 -0.000042
-1.014003 0.420965 0.017054
-2.292663 2.654985 -0.009907
4.993351 3.400772 -0.000642
-1.916449 3.067148 -0.015736
3.844965 -4.834606 0.003721
1.762337 -3.131921 -0.011152
-1.590836 1.549053 -0.002783
0.435344 -1.242407 -0.003721
3.405359 4.824827 0.002809
3.833683 1.654048 -0.005528
-3.396061 4.565489 -0.005953
-1.604269 -2.985535 0.014359
-1.647768 3.639570 0.002846
-4.579552 -1.786477 -0.005611
0.982378 4.895648 -0.002508
3.548201 -3.423113 0.016454
-1.184256 0.163398 -0.002352
2.400359 2.928445 -0.006893
1.277004 -0.673575 -0.006850
-1.243513 -0.319159 -0.005491
-3.589402 4.863558 -0.005945
2.093239 -0.746918 -0.012796
3.545652 1.040721 -0.011242
1.858545 -4.454603 -0.008293
-4.821215 3.422101 0.005916
-2.837671 1.481680 -0.003812
-4.305200 -0.959799 -0.002072
0.703861 -4.838305 0.012701
2.564777 0.916688 0.012950
-3.894208 -4.873422 -0.002821
3.383378 -4.987964 -0.006309
0.555090 1.160986 -0.008644
1.899690 -3.109829 0.006928
4.714018 -3.081125 -0.002047
-4.163190 1.532716 -0.003865
4.012240 -4.463028 -0.008137
-3.738973 -1.865944 -0.007697
-1.070412 -3.505681 0.003201
3.514387 0.801764 -0.013154
4.062542 1.617652 0.009949
0.063717 2.211359 -0.005338
0.941046 -2.447688 -0.001496
2.081473 -4.107502 -0.013370
3.327587 -4.213163 -0.000124
-3.784888 -0.738485 -0.003283
3.100693 4.458444 -0.000501
-0.187238 -2.822710 0.014717
-0.493766 -2.432584 0.001777
-0.761002 -3.991112 -0.007947
0.092116 1.055703 -0.007113
4.450506 1.798729 0.005951
0.482038 1.429312 0.012987
4.531775 3.611302 0.002819
-3.197099 -0.135742 0.006887
2.241360 -3.655430 0.006097
3.122395 -2.105949 0.014191
1.791288 1.624300 -0.019496
1.069223 1.131220 0.006672
0.648128 0.310031 0.009837
3.609305 1.829644 -0.013387
3.216466 1.373909 -0.008857
-3.777113 3.813249 -0.008508
3.485877 0.860164 -0.007288
-0.859314 2.786014 -0.004817
-2.463032 -2.512928 0.002426
3.697686 1.781826 0.008657
-0.679752 4.021941 0.010813
3.083647 -1.142677 -0.008378
-2.365964 2.791042 -0.008447
-4.960707 2.247893 0.013158
-0.045408 -4.404738 0.006467
-3.997717 0.815083 0.000829
2.543760 -3.698107 0.004733
-2.239249 4.673192 -0.000298
-0.563544 3.114075 0.005246
-4.129664 -3.902762 -0.003361
-2.133408 -3.782480 0.002688
2.814902 0.944739 -0.015105
-3.484121 -1.551108 -0.006878
1.471596 -4.650941 -0.006770
4.174259 0.416415 -0.003744
1.798368 -1.121549 -0.009265
3.110217 -3.989235 -0.005335
-3.910284 3.019204 -0.015144
-2.492682 4.150768 0.005487
3.945389 2.565939 -0.000825
2.151056 3.224223 -0.017052
1.395538 -2.835094 -0.008348
1.637667 -2.364270 0.003366
-0.857994 -2.914725 -0.005430
-4.554434 2.650634 -0.006969
2.844415 4.479171 -0.000746
1.787132 2.168372 0.003436
-0.271955 3.814668 -0.014364
3.997596 1.386991 0.005501
-1.638403 -1.123401 -0.008003
-2.056783 -0.742384 -0.000179
3.727963 -4.246786 -0.000354
2.969877 -4.685428 -0.005271
0.149798 1.954756 -0.010237
-3.692653 -0.615711 -0.002857
-2.849285 0.522151 0.016253
1.562280 0.576612 -0.013617
-1.149588 -2.226242 0.016923
3.364732 -0.241075 -0.002597
4.499550 -0.292398 0.000354
3.056369 -1.115728 -0.010867
-1.224546 3.206754 -0.007713
2.886864 -0.488360 -0.005029
-1.485583 1.036445 -0.010457
-3.328999 3.955201 -0.002089
-4.666068 3.662336 -0.004070
-1.142833 3.904222 0.018508
4.035593 -2.299950 -0.011660
-2.610134 -4.650175 0.001027
-2.934868 -2.389332 0.002478
4.698208 -2.212927 -0.010703
-4.749959 4.093603 0.006868
2.857822 1.492427 -0.003983
-1.786300 -4.182960 -0.024924
-4.625120 -3.646214 0.006598
4.178025 -3.443239 -0.011169
-3.603577 1.304217 -0.010478
0.517793 2.354140 0.006879
-2.259458 3.596439 -0.003472
-4.348072 4.406366 0.009178
-4.500775 -2.982954 0.012102
-3.844433 -1.902275 -0.006449
-4.286330 -2.596771 0.007933
2.605581 -1.412384 -0.007555
-0.144338 4.146651 0.022331
-1.571079 0.751126 -0.006930
-0.816311 2.381919 0.010261
4.289467 -0.098808 0.008438
4.107518 -4.711421 0.003161
2.156765 -4.358045 -0.006705
3.846824 0.379230 -0.001514
-1.803520 2.187890 -0.021536
-1.188907 -2.846695 0.002244
1.137122 2.219096 0.003496
1.236259 3.106658 0.001335
-0.183002 -0.881025 -0.029733
-0.993422 2.464192 -0.012656
4.861803 -0.959700 -0.007481
3.211236 1.783506 0.002917
-0.650198 2.639970 0.002893
2.272925 4.919266 -0.001702
-2.304383 -1.546033 0.006352
-3.998307 -0.889592 -0.010262
-1.475690 -3.343799 0.006102
-0.970272 -2.959269 0.004747
-4.834629 1.933950 0.003776
3.147920 4.170456 -0.001820
-1.408066 -1.053950 0.018307
0.804182 -3.201556 0.004932
-4.260368 -2.149005 -0.009683
-3.250032 -0.449483 0.002483
3.896937 -2.093497 0.007525
1.086875 -2.664209 -0.005881
4.502841 2.359845 0.010893
4.987500 -4.921551 0.003820
-1.281399 0.392305 -0.023425
-2.011969 2.937668 0.002997
3.583561 -2.337717 -0.004060
4.986114 1.032915 0.005372
1.296412 1.689001 0.009442
2.951407 1.550247 0.001952
2.817459 -0.541504 0.016653
-1.446603 -1.534220 -0.001787
0.742704 3.359241 0.006248
3.330569 2.584460 0.008049
1.881139 -1.787448 -0.000973
-4.788362 -3.969808 0.007788
-1.632943 -4.281925 -0.005947
-3.555243 -4.057240 -0.004226
-2.670278 0.828694 -0.013125
4.054895 -4.483378 0.002414
-4.631067 -1.630731 0.003253
-2.801993 2.531997 0.011793
-1.904306 -2.056518 0.007911
1.168841 2.633081 -0.002848
0.341017 2.454670 -0.011782
-2.817305 -2.541729 0.004329
-3.357589 2.288222 0.011108
-2.632020 2.477766 0.007552
0.025296 -1.025461 0.010845
-2.288222 -2.895795 -0.002119
4.476025 0.212708 -0.004666
-0.361348 4.213976 -0.007369
-4.412040 1.396167 -0.000559
2.292664 -3.270775 -0.000786
-1.711547 1.827569 0.002067
1.534889 -0.727970 -0.001293
-2.204056 0.915288 -0.001336
0.707437 2.340640 -0.007767
2.721525 0.149474 0.009416
4.280087 3.139840 0.000765
-2.388729 2.221556 -0.001744
-1.651430 1.150733 -0.007474
-0.357336 -3.492072 -0.013319
4.271748 3.359491 0.013080
4.013869 4.359056 0.005546
-4.101217 -3.630349 -0.016239
-3.680702 -0.117589 0.007631
-0.044908 -2.411113 0.009225
-3.933807 2.545233 0.001244
-1.544191 2.216296 0.015981
-3.516146 -3.591149 0.002167
1.360404 3.770273 -0.014168
4.494954 -3.190269 0.003652
4.967338 2.972590 0.002449
-1.247589 -0.430196 -0.006033
0.990126 -1.717277 0.005736
3.562677 -3.417607 -0.016677
-3.825379 -3.323857 0.009906
1.895644 1.618906 -0.008781
-0.911563 0.504304 -0.009849
-2.938538 -3.779146 -0.001138
-0.972464 -3.873021 0.004330
-4.240397 -4.276894 0.001639
1.954071 2.437673 -0.007427
-2.472573 2.118821 -0.005061
-1.885944 -4.415690 -0.011330
-3.789187 0.602701 -0.002247
3.646591 -4.153238 0.010750
-0.065557 4.037458 -0.000043
0.721469 4.071174 0.008594
0.694327 1.982330 0.014554
-0.895069 4.261889 -0.005880
-3.074701 3.114530 -0.001866
2.451327 3.285386 0.021712
