ply
format ascii 1.0
comment reference
element vertex 1000
property float x
property float y
property float z
end_header
-3.229586 -3.729437 1.982281
1.340008 -3.961262 2.006369
-1.358472 2.101450 1.993290
3.523653 -2.911630 1.989042
2.565527 -1.932272 1.988955
1.105132 -0.247725 2.004335
-1.357978 -0.506487 1.997774
-2.900682 2.085791 1.983180
2.761519 1.234318 2.004780
-0.135909 1.443962 1.985604
-2.752500 2.140543 2.001398
-3.048254 -2.073873 2.002385
-3.345991 -1.776667 2.008856
2.771612 -0.620023 2.017817
-2.710128 -1.925378 1.986353
0.266423 4.849379 1.999475
-0.484536 3.140519 1.997237
0.796109 -3.353453 2.004337
3.771549 -4.944058 2.002157
3.677474 -4.572167 1.996475
-0.489239 -2.559365 1.995591
-4.846337 -3.857087 1.988835
-0.735562 0.333381 2.009879
1.061935 3.579952 2.004592
0.577648 2.367502 2.009178
1.513361 -2.843909 1.996896
-3.459243 -1.007007 1.993432
1.465351 0.078942 1.989217
-3.173484 3.102058 2.003589
2.505240 3.391216 1.989602
-1.609124 4.097183 2.018487
2.098954 0.092453 1.986924
-4.521344 1.942747 2.002737
-0.921400 -3.881996 2.015669
2.050345 0.652890 2.005991
-2.731295 -2.513082 2.001757
2.952870 -0.682831 1.990315
1.307797 1.340505 1.986182
0.875618 -2.430141 2.007701
-1.464511 -4.478149 2.015061
-0.175485 -4.897661 1.995612
0.973493 -4.778405 1.988609
-0.275379 -4.916503 1.975418
1.983133 -3.896449 1.990192
-0.663031 -2.605113 1.998863
-2.977268 -2.787785 2.015991
-2.860662 4.867966 2.006731
-4.941962 -1.939939 2.003051
-1.990423 -3.725792 1.995999
2.489176 0.455625 1.994168
2.941627 3.579575 2.014056
-2.975325 1.780604 2.002007
4.590440 -2.039179 1.978974
0.024028 0.616162 1.993265
4.169787 2.148560 1.991418
2.067653 2.281045 1.994537
2.224334 1.665385 2.005629
-4.149564 3.708104 1.998926
-2.800089 3.701055 1.999231
-4.911852 0.789366 2.013135
2.161276 -0.701436 1.993035
-1.555617 1.415703 2.018642
2.866525 3.182120 1.993287
-1.610638 -4.943479 2.000892
3.193338 4.919970 1.997188
-3.693017 -3.171062 2.001234
-3.266268 -0.297510 2.004446
-1.591235 3.720297 2.004338
-0.915126 -2.749596 1.992469
-1.512972 -0.232048 1.988771
2.636470 -3.674178 2.025032
-4.030486 -1.049237 1.995160
-1.487830 -3.228645 2.006992
3.372400 -1.363723 1.983924
-4.332029 -1.265358 1.997204
4.423435 4.931708 1.998728
4.863168 4.948130 2.004728
-4.114318 -3.852137 1.972775
-2.087275 2.259688 2.001661
-1.275993 -4.482545 1.988503
2.763914 -4.698080 2.003243
0.959268 -3.946661 1.989637
1.443657 4.654857 1.991445
2.575098 4.408635 1.997264
-3.820210 -3.060722 1.989477
3.332095 -3.383277 1.995245
2.056198 -2.594649 1.988066
0.773417 0.155470 1.981668
3.897353 0.697046 2.010180
2.003064 -2.784066 1.987040
-2.983000 2.566228 1.998213
-0.702546 -1.904468 2.007529
-0.059571 4.221313 1.993851
-4.447824 1.567227 1.991748
4.546375 -0.636488 2.002262
-3.714227 2.899120 2.011179
1.974613 3.179146 1.988307
0.062310 -2.095184 1.998499
-4.743678 -1.602855 1.982675
4.247475 4.359552 1.996068
3.518368 -3.352590 2.000342
0.242579 -4.578496 1.991454
-2.710577 -0.459447 1.995430
-3.783771 3.012099 1.985918
-1.366075 2.716681 2.000771
-2.445717 4.195306 2.010557
0.066912 0.332007 1.989029
4.664093 -3.999353 1.993773
0.749535 0.886890 2.005025
3.899311 2.783956 2.012121
1.508788 -4.066719 1.985068
-0.247535 -3.273426 1.998312
3.546076 -4.877093 2.002831
-0.286319 0.936526 1.998979
3.686282 3.867344 1.975232
-2.084232 1.706633 2.005011
-3.711869 4.820401 2.015193
3.553145 -4.369663 2.001167
0.874152 4.030011 1.989689
3.890924 3.140683 1.994869
4.378272 -1.857585 2.017699
-4.463716 4.735266 2.009100
0.009693 -2.120623 2.006400
-1.250355 3.893047 2.003564
1.258584 3.807486 1.993389
2.935912 2.576576 1.997994
-2.194098 0.634705 1.999221
0.567984 -3.799973 2.005496
2.087286 0.319717 2.015089
-3.655689 -1.432037 2.011183
3.140669 2.922170 1.985806
1.061096 2.581292 2.002240
4.495374 4.106125 2.007368
-1.604711 -4.851698 2.006189
-3.918541 3.091032 1.993708
0.065012 4.384621 2.029141
-4.141892 2.893004 1.987229
4.695265 -3.698055 1.989168
-4.613150 -4.187209 2.002336
2.535039 -4.791548 2.021168
0.251024 1.287452 1.991638
-1.313793 1.296727 1.997342
-4.341578 4.869137 2.010773
1.221669 -1.019568 1.999821
0.852203 -1.680937 1.996654
-2.191167 1.244249 2.005656
4.102217 3.256087 2.002725
-1.958900 4.367739 2.010304
-0.502746 3.031242 2.012915
0.437625 -0.733260 2.003070
-3.997681 1.349142 2.002917
4.321617 3.562993 2.002141
-1.254638 -0.093903 2.004891
-4.192208 -2.833134 2.000552
-1.127088 -3.302766 1.999994
1.002025 -4.998423 2.011966
0.136527 2.182380 2.015161
1.945420 -3.889028 1.984924
-4.445161 -2.561609 2.000100
-2.154594 -2.021237 1.993113
3.192306 0.603799 1.996890
-4.201063 -1.020427 2.004025
3.554860 1.746740 2.006694
-4.081039 -4.443613 1.998879
3.344542 -3.760608 1.980867
-1.392116 -0.007885 1.990350
1.122091 -1.630352 2.008965
-3.471129 -2.041866 1.972596
-4.338313 -4.329719 2.011874
-2.840618 3.957192 2.005212
-3.721462 1.918186 2.013162
-1.875941 -3.783818 1.998014
0.143832 -4.349540 1.979386
0.887595 4.748725 2.004304
2.898681 1.811726 2.012747
1.562399 -0.825439 2.009247
1.087583 2.017310 1.993373
-0.882180 2.563318 2.000868
-0.261916 2.799622 1.994672
-0.854792 -0.221227 1.991807
3.421660 -0.701172 2.009554
-2.699995 -4.889719 1.988025
-4.942791 4.265571 1.991062
1.513199 1.033079 1.988960
-2.975378 -2.968461 1.985098
3.901151 4.196034 2.001464
3.590463 4.149319 2.011615
-4.232726 4.891842 1.998151
-3.936116 3.740566 1.984943
-0.048284 4.977844 2.008399
1.092227 -2.553138 2.016857
-2.250917 3.422496 1.993538
2.167977 3.230283 1.995214
0.949160 -2.690596 2.005157
-1.751759 -4.015625 2.016219
-4.746285 4.794205 1.994802
2.501503 -2.039754 1.986676
-2.852463 3.708918 2.006314
3.344737 -4.958728 2.007991
-0.797097 -4.789752 2.000061
0.770774 -0.341287 1.994419
3.729487 -2.612853 2.009944
3.636230 1.898413 2.005280
-1.284804 0.655643 1.992316
-2.911111 -4.225142 2.000491
2.751461 -3.373717 1.986483
-0.669198 -1.119507 2.006859
-3.079580 -3.143959 1.997378
4.044253 2.922223 1.995643
-3.018958 -0.839298 1.999671
-4.741928 -4.065681 2.000403
-4.797200 -0.156571 2.008949
1.223154 -4.091618 2.005911
1.616751 -3.710627 1.998436
-1.889583 -2.603902 2.007637
-1.799890 3.595277 2.004007
-1.605061 4.246125 1.995734
1.801585 3.262577 1.998753
-4.418662 -1.659228 1.998518
4.291164 -2.275536 2.005053
-2.774790 0.491557 1.996330
4.996732 2.218532 1.996096
-3.284773 4.933728 2.019688
2.715465 -3.684293 2.009397
-2.765875 -4.507080 1.992394
-4.191532 1.943559 2.005709
3.749333 3.322258 2.001184
3.587513 3.463488 2.003916
-0.964296 1.784635 2.001373
2.023961 4.540158 2.011896
0.570659 0.110048 2.003456
3.529561 4.138148 1.999379
-1.849440 4.678121 2.010422
0.236724 3.471575 2.002333
-0.146276 -1.902414 2.001215
-1.460942 -3.037843 2.003140
3.914551 0.481201 1.999064
-3.341221 -0.469852 2.000092
-3.504914 3.777583 1.994133
0.769095 -3.999683 1.992488
1.574942 -2.422599 1.990014
-3.053807 2.517989 1.986080
-1.092826 -4.050134 1.991203
4.465638 -1.792356 1.998257
-2.533826 -1.128446 2.001031
1.683607 1.225938 1.997287
2.401494 -3.418674 1.976443
-0.518713 3.606045 2.015746
4.375260 -0.524578 2.010865
2.366567 4.170217 2.004458
-0.420754 -0.321301 2.019075
0.693352 -2.249597 1.990226
1.926134 -3.581712 2.018876
0.921902 -4.962549 1.990348
3.786976 0.321575 2.002387
-1.431113 -3.928433 1.987262
-2.001143 -1.082722 2.000147
-2.861611 0.892718 2.003862
-4.622170 -2.243141 1.998453
-4.569860 -3.247757 2.007139
3.700552 2.747216 2.000990
1.783931 4.467912 1.994776
1.605324 -3.995596 1.994332
1.146428 -3.444097 2.008109
3.492191 4.600127 1.993463
-0.197331 -4.622158 2.009154
3.704108 4.776323 2.012227
-1.405550 -4.953555 1.983313
4.267075 3.736687 2.011329
1.986570 -1.926748 2.020604
-2.428229 4.385889 2.002520
0.640849 -1.830547 2.005991
0.330306 1.543063 2.010370
-3.621012 -4.199674 1.997245
0.912429 -2.576702 2.001823
-1.852144 2.736793 1.986858
-4.476512 0.286859 2.001386
4.486562 4.279691 2.004981
1.414904 -0.712486 2.005162
3.769189 3.698124 2.010654
1.760560 -0.510446 1.992252
-1.430163 4.792483 1.994674
0.126881 4.598344 2.018955
1.757468 -1.708633 1.998497
4.602523 3.859237 2.002000
-2.463305 3.476114 1.999330
3.749771 -2.893196 1.991783
4.240778 1.242904 2.016235
1.704155 -4.273177 1.994723
4.312666 3.367107 1.988727
-1.021214 -3.254541 1.995493
4.530162 -4.291853 1.979983
2.027829 -0.997809 1.993487
-4.579942 0.769221 1.990319
4.068728 3.549170 2.006174
-0.155272 4.742425 1.993266
-0.396730 -0.605075 2.008878
0.664666 -4.395531 2.013985
-3.506155 2.491156 2.007812
-0.308340 0.651733 1.997846
3.311272 -0.521087 2.001411
-4.845175 -1.907311 1.984750
-2.270828 0.023985 1.998662
-4.975454 -1.613204 1.991396
-0.842887 2.570119 2.006943
2.283155 0.438937 2.025728
2.987718 3.768478 2.004998
4.451898 0.435439 1.980089
1.085046 -2.617376 1.996388
-2.453731 3.510919 2.001225
4.241479 0.572190 2.000874
2.753158 -2.931590 1.992692
0.744285 1.235078 2.002453
1.956402 -1.422832 1.987575
4.243164 3.444056 1.990551
2.123940 -0.467003 2.006458
-1.316255 2.264414 1.989843
2.130282 -4.044638 2.005382
-4.597218 -1.039757 1.986305
-1.135844 4.832414 2.017648
-0.936770 3.084603 1.992257
-3.331618 -3.400592 1.997763
-4.769145 -2.222360 2.003306
-3.666188 -1.701842 1.994347
1.546215 1.503656 2.001434
3.022888 2.569948 2.005754
4.882035 2.495266 2.009606
-1.536365 0.098741 2.007915
0.993792 3.108205 1.998282
4.371450 -0.629219 1.998534
-3.329582 -3.761194 2.023491
2.176456 0.644418 2.009499
2.549787 4.523014 1.990782
-4.110245 2.929937 2.001000
3.612494 0.787006 1.996649
3.131050 1.468057 1.998647
-4.665970 4.305620 1.987705
-4.089156 -0.716572 1.995881
-4.508731 -1.686059 2.018116
-1.652565 4.772416 2.005791
0.092890 3.634431 1.975088
0.323477 -1.769564 2.012167
-2.323332 -0.362194 2.010896
4.115969 -0.849219 1.996407
-1.317372 -3.509043 2.007173
-4.544498 4.578193 1.991406
-1.997729 -0.956876 1.995297
0.311094 3.753291 2.014985
-0.917782 -3.106438 1.997283
-2.261575 0.478708 1.981303
-3.686768 -4.760386 1.999367
3.191645 2.642205 1.999214
4.961452 0.809139 2.011984
-1.704579 1.255896 2.000143
-1.183790 -4.482791 1.995784
1.180375 -2.889617 2.010451
2.184415 -4.256691 2.001208
-1.079705 -2.110857 1.992500
4.049295 1.274390 2.011550
0.600040 0.661860 2.001937
-0.496099 1.121498 2.000029
1.466728 0.492513 2.001779
4.528038 -2.269712 1.989293
2.945523 -2.554925 1.994723
-4.599869 -3.629403 2.000036
-1.676901 3.490709 1.998053
-0.294553 1.164794 2.012724
-1.854824 -3.134890 2.002174
2.001876 -3.227906 2.008549
3.262691 3.730356 2.000094
2.313451 2.427309 2.010563
4.893333 1.593991 2.003975
-2.274524 -0.931359 2.000134
3.749895 -2.380244 1.999867
2.666227 4.794508 1.990456
-1.378212 2.972396 2.005069
2.341245 -1.982208 1.999598
-3.959240 3.475648 1.994980
2.893335 2.589319 2.011065
0.323306 -2.029195 1.987498
-2.077098 -0.734471 1.995775
1.557773 -3.140466 2.010277
1.416200 -3.889476 2.003155
-2.905138 2.227620 1.999521
-4.696026 -2.324881 2.002510
-0.663774 3.200594 2.001794
0.695119 4.956087 1.984833
3.766053 -4.233802 1.996507
4.282168 -0.269649 2.016165
0.288052 3.020626 1.993407
2.538035 2.889509 1.996817
-0.606967 2.599972 1.994584
2.460822 -1.510051 1.999130
-2.951985 -0.461467 1.994169
-1.289353 0.949684 2.004867
1.342280 4.739406 2.001973
-4.818420 -1.724527 2.007735
2.224613 4.231439 1.989491
3.355355 -2.306431 1.996597
-1.008583 4.890745 1.997743
-0.520576 1.702637 2.004556
3.512822 -0.364885 1.992068
2.756546 1.133904 2.009157
-2.118505 -2.274688 2.011864
-1.760239 -2.258261 1.990111
1.788782 -3.864455 1.995091
0.631981 -3.859497 1.994681
-3.377704 -1.523283 2.026324
-1.900701 2.628555 1.995701
3.999833 1.079712 2.016776
1.881744 -3.974154 1.987334
4.859743 3.522365 1.990103
2.670125 1.013676 1.993134
4.419744 4.608556 1.991543
-2.838114 1.701855 1.997321
2.714849 -3.248251 1.992912
-4.797825 -0.262166 1.991807
1.707600 1.484976 2.011585
-0.307177 -4.717353 2.012238
-1.532399 -4.850897 2.009493
3.624044 -3.705970 2.005240
3.542677 -2.483356 2.000927
-4.776983 -0.704509 1.995030
1.095051 -0.125595 1.990468
-1.321678 -3.619724 2.003630
-0.843390 1.733916 1.988264
3.320407 0.961381 1.990061
-1.901602 -2.055359 2.011529
4.430488 -4.863401 2.019006
-3.203662 -4.223521 2.003933
1.627224 -1.083052 2.011065
1.721051 -3.460256 1.997542
-2.478048 -1.231804 1.986623
-1.752494 1.281826 2.006122
3.347985 0.472374 2.005693
2.618053 -2.688241 2.000717
-1.709041 -1.561775 1.997576
0.339565 1.140312 2.009622
-4.383197 3.608550 1.990143
-2.912541 2.532134 1.992262
-0.141794 0.534000 1.989919
-4.140263 -1.377070 2.000850
3.433324 -1.349487 1.989121
2.180062 3.794173 1.993158
4.436337 -4.607564 1.992942
1.934669 4.879826 1.997394
4.404014 1.643754 1.985126
0.545126 1.811377 2.000872
1.002186 -4.620022 2.012473
4.769711 1.055293 2.001355
1.421291 -0.152219 2.015413
-4.692134 -3.942211 2.013340
2.238028 -2.220780 2.007777
4.054687 3.903145 2.000747
2.955802 0.499884 2.000225
0.838333 -0.865834 2.007638
1.713035 -4.273178 1.996083
4.901918 2.141215 1.981175
-4.093379 2.028508 2.004920
1.672448 1.140436 1.988689
-2.166023 0.102626 1.990379
1.400904 -0.662156 2.000002
1.076236 0.932711 1.999049
-3.465432 -2.666045 1.985879
-2.932534 4.412591 2.001655
1.216296 0.887945 2.009661
-3.717701 -1.888076 1.988717
-2.348191 -0.503201 2.012725
3.352455 3.056848 1.984398
-1.729085 -3.383839 2.021173
-0.119398 -2.071644 1.995887
4.411403 1.795080 2.001456
-2.728509 -1.845108 1.981080
-1.103740 2.925017 1.999379
1.064578 -3.695465 2.002285
2.553389 2.626862 1.999138
4.016534 -4.316483 1.994369
4.154730 -4.874074 1.990534
2.766401 3.982235 2.011305
-2.716692 0.813392 2.000308
-4.751907 -1.481731 2.015408
-1.162261 -2.674054 1.994735
-3.584511 1.168858 1.995652
2.103876 0.090022 2.008156
1.611306 4.915978 1.983770
-4.560284 4.832160 1.987865
3.365938 1.350246 2.010975
-2.512567 -0.571295 1.988281
-0.677729 -0.088590 1.981809
1.679337 1.824791 2.018685
-0.705812 -3.984255 1.986062
-0.587122 -1.716479 2.001841
-4.343720 -4.247278 2.000691
-0.985565 -4.266392 1.971894
2.648479 -3.041608 1.997327
4.151763 -0.147467 2.004484
-0.865029 2.847743 2.003543
-0.764142 -0.145041 2.009035
2.026271 -1.645234 1.996125
4.427720 -4.176470 2.007125
-2.329391 0.502955 1.993107
-0.598558 -2.287314 1.985895
2.959732 1.149342 1.987023
1.096936 4.771877 1.985379
-3.894137 -3.886857 2.010096
1.277327 -2.878746 1.984854
-3.132537 -0.269055 2.002740
0.102159 4.686138 1.997341
0.291033 2.718098 1.998974
3.762034 3.982292 2.013636
-0.375057 -1.662852 1.995616
-2.205576 4.920385 2.006116
-2.690337 -3.971672 2.000376
3.742519 -4.470271 1.998480
-3.289891 3.556026 2.023000
-0.741314 4.272649 1.985587
-3.128269 -4.094146 2.012891
2.733040 -3.865726 2.006564
-0.256274 -4.668258 1.995205
-1.488563 -3.954924 2.016293
-1.389004 -2.905802 1.981519
3.522142 4.700766 1.994782
0.537740 1.678602 1.987915
2.178679 2.785530 2.004121
3.970385 2.761394 1.988869
4.017417 0.350737 2.004331
-1.714909 2.974890 1.998136
4.524513 0.958075 1.995206
-4.751241 -1.854539 2.003886
-1.231644 0.611101 1.997314
3.957989 0.335086 1.989114
-2.253631 3.234531 2.028014
-2.269185 4.817272 1.995128
-1.973777 -0.889574 1.977824
1.123134 2.633907 1.991579
-0.616672 -4.002370 1.987327
2.267348 2.768314 2.008261
3.949106 -1.285831 2.003217
1.741994 -4.606098 2.003987
-2.955333 -1.367538 1.996300
4.326819 1.106428 1.997206
-2.355071 -3.807498 1.996291
-3.501057 4.240345 1.999188
-4.100327 -4.223276 2.008353
0.633837 4.300067 2.003361
-3.862375 2.071375 2.005001
-3.612241 -1.702878 2.004996
-1.999695 -1.092497 2.008844
-2.183470 2.408094 2.002882
1.042395 1.014711 2.003588
3.167453 1.716429 2.011888
2.613497 -1.108354 1.993350
-2.375155 -0.121865 1.991443
-2.546895 4.898675 1.988141
4.657915 -2.860771 2.001829
-4.917638 -0.821438 1.981463
3.797205 -2.081768 2.004622
-3.002715 2.651115 1.998908
4.472843 2.640126 2.011346
-1.576927 -2.075545 1.993281
-0.596482 -4.186097 1.997967
2.071206 -4.885673 2.011222
0.876691 -0.725495 2.013831
-1.820607 -0.896624 1.993198
0.538309 4.883899 2.001818
2.307069 -0.301979 2.002944
-4.576651 -2.435816 2.003737
-4.888007 3.912294 1.997374
-0.419331 -0.089321 2.012814
-3.681634 0.991756 1.981103
1.643443 -4.043313 1.995789
-2.859475 -1.170836 2.004479
-0.671489 4.442237 2.004572
-3.023291 0.895054 2.013528
0.484836 -1.554981 2.011982
-3.839465 1.256672 1.997145
-4.768931 4.104111 2.012999
-4.488684 -2.260094 1.992860
4.542584 0.051167 2.009309
-3.577138 4.586907 2.018105
2.084783 -3.276039 2.012149
-4.320738 2.196639 2.001058
-3.918396 1.144810 1.996682
0.088763 1.796751 1.984714
-0.351291 -1.487804 2.003105
4.515803 -1.861206 1.988848
4.448355 1.842097 1.992069
2.796086 -2.844567 1.988093
1.021018 -0.803453 1.995396
-0.450397 -3.118254 1.999720
-1.438215 -4.916952 2.002736
4.470875 4.700574 1.993995
1.029088 -0.682970 2.010693
0.790725 4.693496 1.997918
-2.680989 -3.596765 1.992123
-4.533022 0.873668 2.002263
4.451886 -2.990260 2.019636
-1.862647 2.900741 2.003352
-0.574110 2.837030 1.996371
-3.853601 -3.873929 1.984725
3.369243 4.120645 1.997806
-4.723682 -3.053704 2.002349
3.339908 1.129773 1.996124
-3.597150 4.856336 1.983346
3.865641 3.823965 1.991494
2.297726 4.565639 2.014545
-3.353297 -1.574012 2.014340
0.658180 -3.944244 1.991134
-1.873437 -3.116531 2.006728
-3.217669 0.004949 1.988214
3.591822 2.932297 2.014043
-0.964772 -3.498464 2.002452
-1.014563 1.597315 2.009496
-3.301133 -1.764224 1.982849
-1.169343 -1.587979 2.006776
3.716168 1.619177 1.999923
-1.368713 -0.330006 2.008519
4.516036 3.120333 2.009149
4.463089 -3.440815 2.000658
-3.551013 2.899483 1.993992
-3.226887 -4.357648 2.007797
3.626741 -3.059461 1.999398
-1.072391 1.561497 1.991272
-4.956260 3.549257 1.990798
-2.261282 -2.473204 1.985228
0.976290 -1.728084 1.994897
2.992660 0.371207 2.011027
-3.666114 -2.884272 2.001778
-3.894586 3.111563 1.994702
4.220927 2.736366 2.008049
2.511484 -3.547083 1.991675
0.897796 -0.361703 2.000954
2.691868 2.748278 1.998204
-0.711456 -1.626705 2.007791
2.584557 1.331068 1.984228
-1.281970 -4.497869 1.991498
-2.559054 1.086888 1.983618
2.290134 -3.473470 1.997404
-0.803277 3.305833 2.012114
4.813771 -1.445505 1.994946
-1.505148 -2.184461 1.994893
4.217274 3.408890 2.008717
4.329625 -4.498560 2.010685
-2.581471 -1.033912 1.999114
2.982212 -1.299965 2.006847
-0.669255 -2.151996 1.989230
4.175247 4.117543 2.013780
-0.498757 2.509284 2.021487
2.443037 -4.360768 2.005212
-0.330326 2.146874 1.979157
-2.721992 0.272991 1.994418
-3.006499 4.008679 2.006128
-0.745688 -1.870544 1.995785
2.554947 0.741620 2.012722
1.050715 0.007553 2.005882
1.886293 -0.104391 1.992935
-2.176736 -0.438946 2.000323
-0.185647 -2.943705 1.991062
-4.556047 2.557099 1.998174
3.175324 -0.486640 1.994454
4.898922 4.585163 2.011748
-0.931209 -2.391916 2.021160
-4.890363 1.827438 1.985688
-3.302074 4.407171 1.980768
1.525269 1.634583 1.997548
1.120793 3.712729 1.984816
2.878647 3.274810 2.000462
-2.461160 -1.398823 2.007489
2.636319 1.001239 2.014941
1.879840 -3.437387 2.002014
-1.771855 0.355259 1.998068
0.454881 -2.695780 1.980216
-3.527262 2.437368 2.000262
-0.474355 0.280584 2.000713
3.811973 -0.887726 2.006390
-0.788086 -2.312029 1.992915
3.395667 4.986985 1.995649
0.902534 -4.282895 1.985220
-3.081233 -4.564393 1.977087
0.811062 -2.827426 1.988915
0.059833 4.710725 1.984297
-1.013587 4.792382 2.003367
-3.803696 1.549277 1.994819
-0.832913 3.801067 1.994618
-4.272376 -2.860383 1.990156
-4.012309 4.720421 1.967674
-0.840835 -3.572151 2.015083
-1.946185 -3.988748 1.989997
4.255443 -3.877885 1.995876
-1.242942 0.731279 1.985451
2.578581 2.809744 2.009719
0.302475 -1.333328 2.001434
2.040857 4.778960 1.991736
-2.398840 -0.655799 1.996078
4.419050 -3.495514 2.016782
0.300885 -0.340333 1.999270
3.313241 1.790372 1.998183
-1.349543 3.322258 1.990586
-3.997887 -0.412317 1.981054
1.737116 0.936068 1.998400
-4.922404 -2.326553 2.003255
-0.247070 1.459165 2.010996
-3.071981 4.859719 1.977515
1.273755 -4.509464 1.988749
4.794199 3.865307 1.994193
-0.355971 0.622825 1.999965
3.174983 -2.479013 1.998550
0.077842 4.548897 1.998783
-0.041600 -0.166457 2.004081
4.304235 -1.683097 1.990967
3.899659 -3.185024 2.009341
2.858005 -2.555478 2.004335
-2.037442 3.328490 1.996802
0.450084 1.144100 2.016009
-2.761028 4.132456 2.015564
-0.560833 -2.680315 2.009329
-0.157869 -3.788614 1.969814
3.316400 -4.939125 2.015789
3.960284 0.078620 2.007948
-0.853799 4.983069 2.020064
-4.822956 1.949653 2.012375
3.617738 -1.916054 2.015783
-3.257213 3.768586 2.008787
1.218820 2.817223 2.013487
-4.750291 -4.845848 2.019941
-1.004935 3.168605 2.002166
4.859603 -1.994732 1.984278
-3.993064 -3.503265 1.996925
-0.763068 -2.736692 2.003899
-1.928500 -0.314202 2.000749
4.050881 -0.751321 1.987534
3.693401 -2.111127 1.983689
-2.623012 -3.277817 1.992588
-4.188122 2.622308 2.008077
1.271384 4.901098 2.015803
-1.636313 2.777916 2.009166
1.720844 -2.040630 2.010574
-4.678802 -2.551910 1.999192
-3.666008 -2.823341 1.982579
1.863722 -3.633049 1.995448
-2.876293 0.513305 1.997412
3.575877 1.054004 1.995029
-4.414091 2.055027 2.000547
-2.845180 1.802134 2.004414
4.985602 -2.076667 2.008530
-0.669239 -1.696890 1.997219
2.029657 1.815145 1.980962
-3.173370 -1.505524 1.995171
1.098687 -2.873768 2.000437
2.261061 -1.256638 2.012228
-1.855234 -2.279158 1.994322
3.288971 -4.116873 2.005125
1.034176 3.301389 2.002901
-1.108770 3.531114 2.000439
0.576424 -2.802497 2.009305
0.767608 -4.352278 1.993392
-3.344647 2.388274 1.994248
-0.972676 -2.884714 1.999881
-1.565694 -1.065645 1.993599
-0.990973 -4.358647 2.005080
2.611106 -2.737304 1.992868
-0.174616 2.929023 2.002263
4.403162 3.043964 1.998998
-2.063236 -2.929152 2.002149
-0.842964 -1.640862 1.995403
2.869568 -3.657616 1.996609
0.460246 -4.258274 2.000960
0.470281 4.921717 2.002021
-4.466598 1.555940 1.999958
-1.014003 0.420965 2.017054
-2.292663 2.654985 1.990093
4.993351 3.400772 1.999358
-1.916449 3.067148 1.984264
3.844965 -4.834606 2.003721
1.762337 -3.131921 1.988848
-1.590836 1.549053 1.997217
0.435344 -1.242407 1.996279
3.405359 4.824827 2.002809
3.833683 1.654048 1.994472
-3.396061 4.565489 1.994047
-1.604269 -2.985535 2.014359
-1.647768 3.639570 2.002846
-4.579552 -1.786477 1.994389
0.982378 4.895648 1.997492
3.548201 -3.423113 2.016454
-1.184256 0.163398 1.997648
2.400359 2.928445 1.993107
1.277004 -0.673575 1.993150
-1.243513 -0.319159 1.994509
-3.589402 4.863558 1.994055
2.093239 -0.746918 1.987204
3.545652 1.040721 1.988758
1.858545 -4.454603 1.991707
-4.821215 3.422101 2.005916
-2.837671 1.481680 1.996188
-4.305200 -0.959799 1.997928
0.703861 -4.838305 2.012701
2.564777 0.916688 2.012950
-3.894208 -4.873422 1.997179
3.383378 -4.987964 1.993691
0.555090 1.160986 1.991356
1.899690 -3.109829 2.006928
4.714018 -3.081125 1.997953
-4.163190 1.532716 1.996135
4.012240 -4.463028 1.991863
-3.738973 -1.865944 1.992303
-1.070412 -3.505681 2.003201
3.514387 0.801764 1.986846
4.062542 1.617652 2.009949
0.063717 2.211359 1.994662
0.941046 -2.447688 1.998504
2.081473 -4.107502 1.986630
3.327587 -4.213163 1.999876
-3.784888 -0.738485 1.996717
3.100693 4.458444 1.999499
-0.187238 -2.822710 2.014717
-0.493766 -2.432584 2.001777
-0.761002 -3.991112 1.992053
0.092116 1.055703 1.992887
4.450506 1.798729 2.005951
0.482038 1.429312 2.012987
4.531775 3.611302 2.002819
-3.197099 -0.135742 2.006887
2.241360 -3.655430 2.006097
3.122395 -2.105949 2.014191
1.791288 1.624300 1.980504
1.069223 1.131220 2.006672
0.648128 0.310031 2.009837
3.609305 1.829644 1.986613
3.216466 1.373909 1.991143
-3.777113 3.813249 1.991492
3.485877 0.860164 1.992712
-0.859314 2.786014 1.995183
-2.463032 -2.512928 2.002426
3.697686 1.781826 2.008657
-0.679752 4.021941 2.010813
3.083647 -1.142677 1.991622
-2.365964 2.791042 1.991553
-4.960707 2.247893 2.013158
-0.045408 -4.404738 2.006467
-3.997717 0.815083 2.000829
2.543760 -3.698107 2.004733
-2.239249 4.673192 1.999702
-0.563544 3.114075 2.005246
-4.129664 -3.902762 1.996639
-2.133408 -3.782480 2.002688
2.814902 0.944739 1.984895
-3.484121 -1.551108 1.993122
1.471596 -4.650941 1.993230
4.174259 0.416415 1.996256
1.798368 -1.121549 1.990735
3.110217 -3.989235 1.994665
-3.910284 3.019204 1.984856
-2.492682 4.150768 2.005487
3.945389 2.565939 1.999175
2.151056 3.224223 1.982948
1.395538 -2.835094 1.991652
1.637667 -2.364270 2.003366
-0.857994 -2.914725 1.994570
-4.554434 2.650634 1.993031
2.844415 4.479171 1.999254
1.787132 2.168372 2.003436
-0.271955 3.814668 1.985636
3.997596 1.386991 2.005501
-1.638403 -1.123401 1.991997
-2.056783 -0.742384 1.999821
3.727963 -4.246786 1.999646
2.969877 -4.685428 1.994729
0.149798 1.954756 1.989763
-3.692653 -0.615711 1.997143
-2.849285 0.522151 2.016253
1.562280 0.576612 1.986383
-1.149588 -2.226242 2.016923
3.364732 -0.241075 1.997403
4.499550 -0.292398 2.000354
3.056369 -1.115728 1.989133
-1.224546 3.206754 1.992287
2.886864 -0.488360 1.994971
-1.485583 1.036445 1.989543
-3.328999 3.955201 1.997911
-4.666068 3.662336 1.995930
-1.142833 3.904222 2.018508
4.035593 -2.299950 1.988340
-2.610134 -4.650175 2.001027
-2.934868 -2.389332 2.002478
4.698208 -2.212927 1.989297
-4.749959 4.093603 2.006868
2.857822 1.492427 1.996017
-1.786300 -4.182960 1.975076
-4.625120 -3.646214 2.006598
4.178025 -3.443239 1.988831
-3.603577 1.304217 1.989522
0.517793 2.354140 2.006879
-2.259458 3.596439 1.996528
-4.348072 4.406366 2.009178
-4.500775 -2.982954 2.012102
-3.844433 -1.902275 1.993551
-4.286330 -2.596771 2.007933
2.605581 -1.412384 1.992445
-0.144338 4.146651 2.022331
-1.571079 0.751126 1.993070
-0.816311 2.381919 2.010261
4.289467 -0.098808 2.008438
4.107518 -4.711421 2.003161
2.156765 -4.358045 1.993295
3.846824 0.379230 1.998486
-1.803520 2.187890 1.978464
-1.188907 -2.846695 2.002244
1.137122 2.219096 2.003496
1.236259 3.106658 2.001335
-0.183002 -0.881025 1.970267
-0.993422 2.464192 1.987344
4.861803 -0.959700 1.992519
3.211236 1.783506 2.002917
-0.650198 2.639970 2.002893
2.272925 4.919266 1.998298
-2.304383 -1.546033 2.006352
-3.998307 -0.889592 1.989738
-1.475690 -3.343799 2.006102
-0.970272 -2.959269 2.004747
-4.834629 1.933950 2.003776
3.147920 4.170456 1.998180
-1.408066 -1.053950 2.018307
0.804182 -3.201556 2.004932
-4.260368 -2.149005 1.990317
-3.250032 -0.449483 2.002483
3.896937 -2.093497 2.007525
1.086875 -2.664209 1.994119
4.502841 2.359845 2.010893
4.987500 -4.921551 2.003820
-1.281399 0.392305 1.976575
-2.011969 2.937668 2.002997
3.583561 -2.337717 1.995940
4.986114 1.032915 2.005372
1.296412 1.689001 2.009442
2.951407 1.550247 2.001952
2.817459 -0.541504 2.016653
-1.446603 -1.534220 1.998213
0.742704 3.359241 2.006248
3.330569 2.584460 2.008049
1.881139 -1.787448 1.999027
-4.788362 -3.969808 2.007788
-1.632943 -4.281925 1.994053
-3.555243 -4.057240 1.995774
-2.670278 0.828694 1.986875
4.054895 -4.483378 2.002414
-4.631067 -1.630731 2.003253
-2.801993 2.531997 2.011793
-1.904306 -2.056518 2.007911
1.168841 2.633081 1.997152
0.341017 2.454670 1.988218
-2.817305 -2.541729 2.004329
-3.357589 2.288222 2.011108
-2.632020 2.477766 2.007552
0.025296 -1.025461 2.010845
-2.288222 -2.895795 1.997881
4.476025 0.212708 1.995334
-0.361348 4.213976 1.992631
-4.412040 1.396167 1.999441
2.292664 -3.270775 1.999214
-1.711547 1.827569 2.002067
1.534889 -0.727970 1.998707
-2.204056 0.915288 1.998664
0.707437 2.340640 1.992233
2.721525 0.149474 2.009416
4.280087 3.139840 2.000765
-2.388729 2.221556 1.998256
-1.651430 1.150733 1.992526
-0.357336 -3.492072 1.986681
4.271748 3.359491 2.013080
4.013869 4.359056 2.005546
-4.101217 -3.630349 1.983761
-3.680702 -0.117589 2.007631
-0.044908 -2.411113 2.009225
-3.933807 2.545233 2.001244
-1.544191 2.216296 2.015981
-3.516146 -3.591149 2.002167
1.360404 3.770273 1.985832
4.494954 -3.190269 2.003652
4.967338 2.972590 2.002449
-1.247589 -0.430196 1.993967
0.990126 -1.717277 2.005736
3.562677 -3.417607 1.983323
-3.825379 -3.323857 2.009906
1.895644 1.618906 1.991219
-0.911563 0.504304 1.990151
-2.938538 -3.779146 1.998862
-0.972464 -3.873021 2.004330
-4.240397 -4.276894 2.001639
1.954071 2.437673 1.992573
-2.472573 2.118821 1.994939
-1.885944 -4.415690 1.988670
-3.789187 0.602701 1.997753
3.646591 -4.153238 2.010750
-0.065557 4.037458 1.999957
0.721469 4.071174 2.008594
0.694327 1.982330 2.014554
-0.895069 4.261889 1.994120
-3.074701 3.114530 1.998134
2.451327 3.285386 2.021712
