ply
format ascii 1.0
comment scene ground+objects
element vertex 1710
property float x
property float y
property float z
end_header
13.044787 15.470524 0.620009
17.640667 9.700772 0.894044
17.623247 1.444560 0.857458
8.174882 3.308854 0.438904
4.753790 17.858093 0.237054
5.148431 12.056316 0.270077
15.318832 3.686664 0.830304
18.588607 14.075298 0.951444
1.444613 16.465235 0.035477
0.300395 6.613063 0.030623
16.458701 11.131904 0.943868
7.732052 5.868999 0.414851
5.528985 1.601234 0.284045
3.767477 7.990182 0.119846
6.929612 15.028640 0.382702
19.429362 9.173606 1.015079
19.541595 8.105380 0.992716
6.630271 7.320144 0.337218
19.273802 9.178336 1.105317
5.997269 6.364579 0.342635
17.089622 12.243684 0.916483
4.240084 1.271320 0.215348
16.529752 16.147763 0.819908
7.074608 3.463339 0.385335
3.914470 12.668895 0.189096
18.695598 8.997650 0.932258
4.283687 15.469871 0.237345
19.836705 16.522800 0.966195
2.171478 4.084007 0.119594
0.200416 13.543583 0.014025
17.415871 3.798150 0.919145
11.732088 2.479965 0.556039
8.432526 18.605922 0.321630
1.639279 3.287781 0.066432
11.497851 4.562639 0.594757
7.874512 2.606480 0.441931
9.672438 9.405838 0.448980
12.607837 18.392146 0.657497
12.798672 5.281115 0.696691
19.211985 10.837043 0.998162
13.101068 8.229175 0.615522
6.788083 6.720188 0.305243
6.592657 11.443054 0.351383
9.543219 11.177858 0.558428
5.186554 7.187332 0.260036
7.528780 17.011266 0.368173
16.842255 1.063442 0.773632
17.195232 1.704768 0.841547
12.555850 19.815625 0.592031
11.656819 14.953658 0.584201
8.541997 16.078578 0.351459
12.717978 12.054022 0.619469
16.121067 8.397209 0.755607
14.756941 12.584538 0.784859
0.709190 1.851694 -0.007499
14.622600 15.155383 0.702513
14.398953 10.814861 0.734054
1.979811 19.134638 0.076305
3.004947 12.749505 0.268220
15.758170 3.033851 0.834434
11.179792 9.551002 0.559850
16.432580 1.156445 0.840034
3.694883 14.908591 0.066973
0.612295 10.036630 0.092201
3.238835 7.393067 0.187537
9.051401 19.370988 0.448912
10.465855 18.811970 0.551585
17.154022 19.056640 0.892094
14.324011 4.419405 0.695382
19.807813 14.571392 1.009399
1.574392 18.907643 0.131156
2.604421 11.417405 0.152966
1.687112 4.283207 0.071725
10.769161 16.356249 0.553291
5.337215 17.598365 0.335973
13.672659 14.064708 0.722832
2.653818 5.871058 0.074538
2.063828 3.813878 0.132526
9.203309 12.485396 0.482873
7.517967 9.656010 0.434104
16.583298 13.375654 0.830806
16.751082 2.233993 0.819087
2.348573 2.718271 0.049020
16.246456 7.257791 0.777593
11.283300 5.175206 0.624562
10.071165 12.386773 0.513456
1.895268 7.350811 0.089774
14.792615 13.679416 0.804412
1.192676 15.375968 0.114114
5.553835 3.743351 0.240904
1.908631 18.396477 0.155481
10.615352 15.743197 0.447839
12.904601 12.535616 0.668207
17.817103 18.178577 0.907921
14.677438 5.317375 0.791361
19.222088 8.434264 0.980155
15.218997 1.715740 0.748722
5.961462 9.123636 0.289795
10.951696 10.128015 0.682247
9.158793 12.321338 0.462072
11.319374 1.280784 0.595823
11.441787 0.649320 0.471031
14.042022 8.397803 0.660733
1.660876 3.782666 0.108982
14.934903 15.175767 0.666019
2.874872 13.374726 0.171214
0.524146 6.516539 -0.010049
10.378111 0.915665 0.467213
11.629539 3.648872 0.545035
0.697021 13.833587 0.111228
10.307422 19.803298 0.532042
10.691404 6.529208 0.489048
1.049898 16.039926 0.091262
14.231706 17.341930 0.753072
4.205794 0.963617 0.191224
15.889184 18.324432 0.842418
6.216443 9.324054 0.361160
9.557851 19.284844 0.520459
17.837018 10.771117 0.858163
16.123589 4.702870 0.747227
15.637272 19.493366 0.697220
3.208684 4.866098 0.127658
0.962848 17.649565 0.029752
12.115179 3.462570 0.591437
8.213833 13.495351 0.408331
18.181546 8.225832 0.995727
6.991865 19.440363 0.332614
8.210967 3.695453 0.408110
10.520011 8.175893 0.435121
15.928013 12.795526 0.907799
5.365981 19.552408 0.202504
18.836413 6.077262 0.906478
10.798422 7.937421 0.574707
16.819545 9.235840 0.853287
10.512370 5.054010 0.607778
15.439864 16.347094 0.807994
1.028415 1.839912 0.047357
15.984250 14.095799 0.851417
10.479189 10.678579 0.582025
8.988312 4.838539 0.416408
2.232193 9.856609 0.159761
14.831251 16.598982 0.730449
2.623273 8.908832 0.125990
3.846356 2.437955 0.199464
2.528465 0.816039 0.107384
0.131512 15.555926 -0.015154
13.238276 6.608663 0.711150
5.416881 18.624894 0.194397
2.989409 12.342944 0.096389
6.399450 8.725678 0.353709
9.981694 11.289298 0.495440
10.068250 9.142653 0.552988
7.343920 18.116222 0.385093
9.898645 9.160437 0.428247
8.546829 2.081290 0.430483
16.453305 11.941761 0.849393
0.592279 12.459621 0.041316
17.360603 15.306601 0.844616
4.878305 18.665683 0.230218
14.435644 8.861634 0.693778
8.100792 7.041532 0.338780
5.886659 9.815420 0.221196
12.306947 18.003978 0.634848
15.377688 19.599648 0.725312
8.998729 19.424700 0.478716
9.331077 4.593910 0.436800
1.177130 9.937907 -0.006801
18.479920 5.189481 0.903599
16.937934 7.359656 0.951615
7.959856 0.633682 0.393212
15.299012 3.212024 0.797244
6.265584 7.941519 0.321719
14.608436 7.294093 0.660162
10.333834 5.576651 0.589140
9.215334 4.606192 0.448376
1.130460 14.979114 -0.009003
19.308438 5.890994 0.939810
16.748179 14.130873 0.827097
15.867761 7.372502 0.830862
6.098324 16.039585 0.270878
5.791804 3.344667 0.420607
11.463862 3.152078 0.526335
16.924464 13.593445 0.876823
18.692568 18.298305 0.835930
5.378581 2.859734 0.262744
12.148296 1.474092 0.625777
14.478056 18.692744 0.667924
4.527843 2.346539 0.301344
8.149373 5.007338 0.429192
3.749485 18.589883 0.171592
13.978102 16.058358 0.720089
17.275703 6.855156 0.834119
17.550687 19.090554 0.940103
13.401777 11.360970 0.720854
6.943047 1.444965 0.365822
13.220808 14.061338 0.691625
17.285335 10.745547 0.790407
12.517117 11.451761 0.699203
8.257839 19.882085 0.407924
18.396055 3.050286 0.971055
16.704332 13.135918 0.872709
17.648705 9.174822 0.932921
18.063840 5.437862 0.850804
7.876246 13.870896 0.347787
17.192780 13.364256 0.972053
11.406993 17.129902 0.494383
0.763179 17.577385 -0.016722
12.716727 11.236389 0.637999
9.412378 6.511451 0.472868
5.503093 10.591609 0.248154
19.407663 7.185103 1.001187
1.101417 5.547122 0.100175
18.917548 11.031508 0.944969
3.185341 13.158683 0.145843
7.539764 11.811426 0.375875
8.344704 19.088390 0.392367
14.620410 5.972722 0.646109
4.312184 7.446834 0.230655
19.722037 13.352856 1.024394
14.980237 12.007173 0.741315
15.799053 0.037268 0.676699
2.128575 6.245709 0.077843
9.526240 5.075237 0.521598
18.912187 16.798298 0.873697
5.401321 17.324975 0.304860
2.907673 5.677863 0.123113
9.707889 2.041423 0.484456
18.607861 4.104039 0.896098
9.735812 3.531368 0.430011
8.096686 4.748707 0.476547
13.005449 4.692898 0.691064
18.737680 9.596773 0.969120
0.981149 6.392828 0.094485
3.067911 11.196435 0.178531
2.655086 6.882692 0.179961
1.706660 16.293539 0.052138
6.042122 19.015850 0.370990
4.586181 8.078369 0.293731
10.973825 0.989371 0.567715
6.545788 4.791565 0.312890
8.104157 2.037163 0.344031
18.837294 6.895278 0.953298
3.113113 12.902285 0.239901
7.769147 10.378158 0.330415
5.141637 4.857514 0.307986
10.983320 15.345181 0.525594
14.726725 2.629615 0.717031
16.339757 4.563920 0.758215
10.305934 13.520943 0.477672
17.098332 3.944688 0.887256
15.701510 13.575254 0.823632
3.140081 19.538827 0.168797
4.908575 16.627066 0.220388
13.434411 3.200211 0.616543
19.495880 10.409968 0.977882
7.522594 8.446431 0.357882
4.596157 19.833388 0.240367
17.382589 19.288014 0.853068
3.992239 2.542241 0.184829
13.948165 18.174617 0.705356
0.684981 3.868367 0.051859
0.379610 6.389030 0.080177
9.031334 7.068160 0.434717
13.130803 5.736441 0.683815
2.848689 17.064876 0.232616
15.277649 6.598648 0.792486
2.574730 16.334768 0.186949
10.674156 19.887536 0.502676
6.165984 16.815231 0.272281
15.045066 6.922859 0.744285
16.082335 14.225048 0.801470
1.321825 10.678469 0.119632
3.852091 15.730356 0.156120
17.852882 3.061948 0.888213
8.312257 12.762692 0.469354
9.534717 15.473335 0.487513
3.360477 15.224627 0.167483
19.897896 19.271860 1.006820
18.460954 1.168228 0.866670
0.040493 6.915587 -0.055163
11.014694 9.531072 0.471324
17.445348 6.195271 0.882601
8.610672 6.195790 0.476476
8.736285 3.522572 0.475094
7.586943 16.259028 0.436529
0.576567 18.161381 0.101539
15.805667 1.646547 0.797516
9.135704 3.097978 0.453555
10.621313 4.569060 0.604864
5.113702 10.179750 0.220634
15.682370 15.823441 0.725192
15.874971 1.429110 0.776805
11.058416 12.736260 0.530134
18.092559 2.986709 0.907044
2.317685 19.429141 0.073383
15.732533 17.975469 0.805113
11.171683 18.991657 0.530129
4.620263 2.123278 0.292423
2.646076 9.760728 0.072576
6.020141 3.304931 0.294033
17.126318 12.007111 0.839570
15.752387 4.654782 0.799164
12.902649 15.412620 0.691468
1.806540 12.880052 0.103638
19.096613 11.432092 0.948401
6.108803 16.504543 0.340003
12.140000 10.005461 0.649151
16.062037 5.397035 0.816562
2.657117 12.414110 0.152235
13.043935 19.141253 0.684529
0.645920 12.023187 -0.049900
2.035786 12.592389 0.084249
14.462873 18.695014 0.741955
3.101643 10.305502 0.140502
8.870134 19.927149 0.429099
4.966651 3.193241 0.267078
8.424590 10.740797 0.441112
1.544405 4.258017 0.100573
15.098011 9.066527 0.715289
1.580824 3.411478 0.008151
16.758290 4.450575 0.878134
13.252177 4.216001 0.625488
8.331712 6.400627 0.376009
17.329731 2.692101 0.821399
3.722626 16.186843 0.243683
5.291285 4.413512 0.275166
2.742473 8.331380 0.154250
7.631374 0.321143 0.416046
19.734664 2.097631 0.984615
3.220548 17.925438 0.211662
16.619530 16.743204 0.771136
13.037601 16.818449 0.597600
0.316283 8.227068 -0.041224
18.897804 2.830616 0.965974
19.421825 2.157890 0.996412
18.498014 12.112054 0.901272
10.034793 16.563865 0.490118
4.407504 18.002290 0.283779
7.825294 5.774633 0.356543
12.283831 6.420531 0.628963
7.576728 2.017533 0.344551
14.163433 15.488196 0.762970
15.911511 5.513805 0.826997
4.187858 9.618589 0.139447
8.098838 18.577946 0.391902
19.154888 15.044315 0.853794
4.996136 1.054758 0.294830
6.928950 0.163092 0.448813
0.713210 15.748159 -0.073362
6.647321 11.050005 0.261011
7.418628 14.406688 0.379297
1.996711 3.136306 0.098913
0.028845 17.440957 -0.019100
11.508110 15.466500 0.488524
6.030532 17.816778 0.317699
0.356477 6.821922 0.062200
17.198886 5.514104 1.002294
11.688194 3.034629 0.649774
3.423367 18.601770 0.106233
17.304932 3.536584 0.864652
5.071719 2.386345 0.283190
4.548915 3.853564 0.193033
17.892681 15.427635 0.933635
3.589158 17.790585 0.214627
17.579716 16.218269 0.940854
16.059466 11.264771 0.843085
6.195551 19.877685 0.324035
0.687942 1.377081 0.002500
1.651462 17.343834 0.017919
2.190565 8.554277 0.120479
17.815977 9.102447 0.870607
8.080720 2.551898 0.388676
0.650595 0.668659 0.088619
11.130969 6.332567 0.624995
4.159845 3.497071 0.146224
4.702521 9.666775 0.224605
3.216835 2.946611 0.139181
15.240429 2.758555 0.777767
0.012258 17.539580 -0.112701
8.779683 18.425894 0.365942
1.737423 19.284324 0.080996
11.047492 13.610049 0.591680
6.919847 15.420330 0.349757
0.567032 16.715695 0.061927
9.219485 13.178441 0.470840
11.411710 6.604862 0.634400
4.953081 3.127740 0.321948
15.310238 4.745466 0.727489
7.420975 16.808281 0.415231
14.986930 13.921945 0.774752
11.580315 9.115915 0.704249
17.385061 0.588102 0.829361
10.938496 5.324087 0.541088
3.712544 14.577950 0.134014
16.451824 10.247745 0.773944
15.660705 8.710650 0.802313
19.447116 6.273588 0.982633
1.871638 12.138637 0.120654
11.824623 19.327708 0.617219
9.833380 18.022473 0.479887
13.417442 0.609959 0.658745
19.603597 9.619076 0.931640
10.645442 6.589386 0.497214
13.714773 10.212093 0.682899
6.944269 12.124274 0.357065
5.979410 4.000561 0.334510
6.705931 15.631361 0.365740
0.772158 9.501361 0.116462
5.694813 19.840121 0.236106
3.458928 0.502548 0.161317
9.148560 3.794384 0.413163
9.216495 13.792596 0.524689
15.304597 13.903595 0.740106
10.045833 11.643764 0.560043
9.261632 19.439201 0.535721
4.632526 8.306300 0.252298
17.049600 8.340736 0.867133
1.820018 18.209527 0.092933
19.645919 10.768836 0.966441
9.521500 7.074553 0.454206
3.719740 14.378760 0.178616
7.086561 12.393412 0.445547
0.307404 6.128201 -0.036723
3.330454 5.958576 0.176753
6.706796 7.912256 0.370905
11.088306 1.432401 0.540196
2.589617 18.852338 0.150285
13.519266 3.660401 0.600733
16.885530 3.876486 0.910529
11.446792 12.940768 0.628897
5.938029 14.484941 0.291980
2.427847 14.736709 0.077401
0.310701 7.501500 0.055180
14.636047 17.466579 0.674396
12.569587 10.879981 0.578248
9.525668 8.771751 0.473603
2.039911 16.207729 0.177898
4.140504 4.871225 0.239054
16.303446 17.203709 0.782823
9.597029 10.776588 0.395747
19.256657 18.001163 0.964909
19.999443 4.032251 1.012543
16.014143 18.721262 0.797068
5.163672 13.757535 0.348503
4.622299 12.366571 0.224519
5.072686 8.441350 0.139528
19.735702 19.126300 0.966428
6.706810 8.878393 0.358073
14.128935 9.970859 0.725792
19.180354 15.629962 0.950184
16.391923 5.696849 0.802485
11.952076 5.829906 0.497623
3.379310 15.505954 0.173254
3.498765 2.571596 0.158007
9.848462 16.459290 0.504886
19.038890 12.503500 0.976509
18.089874 10.781675 0.966547
3.323841 4.582188 0.118414
5.754395 15.727363 0.223021
11.776226 16.099062 0.560113
9.548610 9.658837 0.440651
2.387256 7.783379 0.078092
7.386144 4.923237 0.441553
19.094287 15.084680 0.962135
19.028844 12.789038 1.050062
11.188518 4.132621 0.559272
12.705226 15.889362 0.576667
4.438126 17.644106 0.181498
14.839055 1.184945 0.793175
1.049924 15.448413 -0.004196
4.413644 17.056039 0.248576
0.117674 19.830158 -0.011954
7.714025 4.752030 0.339210
17.005224 7.420064 0.919587
19.650130 19.323822 0.953078
13.355120 1.880311 0.626377
14.897334 10.474157 0.740922
5.254992 10.134892 0.237338
10.406654 12.130955 0.631082
14.731558 6.615852 0.789596
9.945517 18.518362 0.467741
1.770928 5.401225 0.064780
14.817284 12.993910 0.639892
4.391288 9.918540 0.226435
1.953953 5.333469 0.060345
9.561159 3.777076 0.482459
1.492182 19.131242 -0.023705
12.588873 11.225829 0.628106
12.809465 12.083818 0.725407
5.134039 15.657909 0.259409
19.290688 1.624533 0.925800
16.489032 14.275285 0.823428
2.191739 3.302803 0.106375
14.970243 14.809622 0.858104
7.061494 2.826573 0.336433
15.005770 16.649874 0.690124
16.015896 13.620325 0.801868
3.027561 7.717806 0.161155
13.236840 7.176689 0.689957
17.254599 2.978941 0.900518
6.467472 18.081067 0.421150
1.606566 2.370585 0.050545
0.545350 9.441548 -0.007060
2.200019 4.730369 0.017294
0.084118 19.926550 0.037289
6.538919 11.716881 0.282580
5.986572 2.991690 0.343917
2.206825 13.351280 0.085760
13.022358 19.832180 0.737416
19.838127 12.100866 0.920231
18.018528 9.147582 0.952073
5.057012 5.865402 0.298043
15.399633 1.842468 0.796310
18.737265 4.564926 0.881000
18.127285 11.072416 0.932922
17.690990 15.075714 0.890893
15.729010 17.558618 0.694938
5.859830 15.874245 0.370905
1.671261 2.509304 0.066282
9.756387 15.469198 0.561880
1.095823 11.632091 0.051408
19.969474 9.382151 1.047590
7.166194 11.455282 0.315333
19.166798 0.161507 0.969062
15.462420 1.354605 0.780318
8.225819 10.516986 0.395111
2.366228 3.472385 0.074850
4.743862 10.910819 0.083853
13.460892 7.084271 0.630757
16.598704 18.148240 0.864961
19.588810 18.993669 0.909679
2.643244 19.595682 0.072756
3.118947 17.978760 0.084204
0.848790 19.717817 0.052884
5.207291 14.122943 0.215694
16.421349 19.210846 0.882085
3.965137 12.835849 0.234988
10.957295 16.184284 0.557871
8.928144 2.638200 0.461605
6.516525 13.651992 0.287679
12.366928 18.622066 0.580212
10.046516 10.800965 0.537877
6.695263 3.736394 0.380433
13.777018 10.537771 0.723964
5.599364 14.138820 0.256439
12.863667 15.395770 0.623617
19.144917 10.474040 0.910658
14.579040 4.347360 0.767365
8.367991 18.533776 0.320327
14.951186 15.472348 0.637348
16.184836 5.413768 0.708999
6.516809 16.236258 0.218706
14.102644 6.957253 0.772989
8.687924 6.248627 0.473736
16.370450 17.261533 0.758593
5.907552 17.464704 0.290081
18.755193 7.969628 1.011049
11.495739 0.178456 0.599797
7.066066 3.731312 0.459022
8.387425 18.185927 0.413658
6.955972 17.974987 0.315041
2.924927 9.066895 0.092191
1.369848 6.082334 0.069675
6.435574 6.054966 0.368582
9.173809 17.943896 0.463647
7.236339 6.494666 0.343907
0.278390 10.231605 0.076746
11.580125 14.620221 0.605451
2.896330 4.189621 0.139145
4.220106 5.076782 0.172676
2.414971 7.161238 0.108026
10.408655 13.084468 0.544070
1.903186 16.349813 0.056142
5.127145 10.934115 0.194675
9.034174 2.658575 0.427701
3.354178 8.924910 0.165248
8.924827 2.553814 0.514406
6.854703 1.765943 0.284733
17.211944 11.792335 0.871935
15.898064 19.124242 0.781025
19.857092 16.752237 0.981458
10.578235 15.489425 0.605880
11.507942 14.541119 0.579458
18.932917 17.942557 0.900968
7.991844 15.056702 0.444030
11.113654 12.537547 0.596445
7.581710 7.293602 0.329027
10.917214 2.018878 0.486214
1.615329 9.220667 0.101292
15.675882 18.495685 0.782146
19.705599 11.662005 0.961751
1.314808 3.690084 0.118555
16.020795 12.980466 0.771426
4.834696 9.309245 0.262813
3.950941 18.627602 0.256279
13.867408 3.218798 0.676414
0.882645 14.240235 -0.047323
9.264787 13.632049 0.443086
0.028889 19.670832 0.010909
11.087881 11.298243 0.604544
9.241633 17.431481 0.436024
18.309652 0.494279 1.001637
14.405438 2.457839 0.655331
2.520123 6.918771 0.134213
7.090799 12.386548 0.342582
18.631595 8.981587 0.998934
14.506683 4.053925 0.651652
11.885502 11.784075 0.615557
11.181432 11.333981 0.546860
7.961969 10.488950 0.474556
11.704029 1.811122 0.543774
15.433288 18.540510 0.792430
2.550754 11.845106 0.085628
19.396613 5.279835 0.979234
4.787297 13.748364 0.220897
8.954854 6.358160 0.428481
0.454312 10.117121 -0.076656
11.006918 6.822635 0.571075
7.637337 17.607881 0.327755
4.995117 19.879612 0.193922
19.710485 3.223641 0.907760
8.562823 0.471579 0.375339
8.285927 4.386450 0.439320
9.262065 11.799040 0.485662
2.323076 3.479023 0.149339
7.861922 16.229688 0.341747
6.728085 8.173412 0.347143
9.302489 12.210655 0.434355
17.132423 9.112357 0.904358
3.855708 18.066558 0.214086
12.154787 0.702707 0.574913
0.752742 14.586038 0.089666
6.335850 13.043443 0.342160
9.453152 12.990301 0.403307
1.485583 8.279788 -0.009297
10.879359 0.313505 0.476584
6.206512 13.784814 0.392785
19.856200 16.589424 0.942037
12.619390 1.704606 0.724777
4.883504 8.832350 0.190809
2.053465 3.251897 0.043980
0.814396 12.218756 0.084717
1.815465 15.712098 0.137049
13.601191 13.334131 0.707851
17.099846 6.361201 0.888798
3.134662 2.794654 0.116652
8.042689 15.885363 0.443785
7.084707 6.478337 0.366235
12.890362 0.442797 0.626254
3.653558 11.428424 0.187409
19.066386 4.933546 1.006352
14.571128 16.824120 0.748149
19.101438 2.865104 0.847182
5.547385 8.696017 0.321931
11.754313 5.062604 0.628448
14.645359 13.792032 0.713315
14.219124 10.970618 0.716794
0.426922 15.819754 0.026983
19.965783 9.172252 0.899316
18.561199 0.096169 0.907976
2.395042 4.303930 0.101603
10.871335 19.983142 0.535630
6.291129 8.106900 0.288264
17.577880 12.404702 0.912036
13.950393 18.098632 0.657063
4.470343 0.410484 0.269021
0.677223 13.192148 0.064648
5.834836 5.767539 0.359763
0.762745 5.584965 0.124827
2.826214 4.497028 0.228333
12.722761 16.454584 0.576857
14.901701 7.458955 0.762294
9.360338 1.342331 0.432128
12.005757 1.937023 0.764303
3.117701 2.972287 0.186589
6.335903 17.978552 0.387611
14.257677 8.548869 0.734652
7.297822 18.320987 0.233119
6.976224 16.349589 0.309633
3.879853 16.757652 0.159713
11.896498 5.736636 0.575318
16.190772 5.426288 0.827517
9.388901 11.201368 0.494512
2.310785 8.358499 -0.015828
16.767349 10.181214 0.826521
1.427942 1.064084 0.047103
9.434547 19.431804 0.540779
5.221547 1.163376 0.290690
18.726363 3.576626 0.927164
14.750864 13.564010 0.748727
11.328180 3.110031 0.482058
13.355109 2.137399 0.700823
10.654545 3.072408 0.512950
2.952019 1.238405 0.107232
14.181974 5.026375 0.774810
9.853479 5.422385 0.506353
12.686185 9.972442 0.601038
0.904033 8.774450 0.014982
2.840696 9.474268 0.160330
11.787410 12.320790 0.603779
9.188578 4.619229 0.460900
4.537473 2.694083 0.166706
4.815218 17.577566 0.187988
12.633166 12.678827 0.594243
1.179341 1.213266 0.049160
8.685167 19.221033 0.432193
10.462070 13.861370 0.515105
6.162852 3.034093 0.302430
16.410997 19.382689 0.914612
1.135392 7.308147 0.099232
17.315656 19.690202 0.925194
14.465260 2.065513 0.746476
8.925088 3.199384 0.449875
18.489348 13.148391 0.944965
14.044766 0.442869 0.713529
18.620907 0.373793 0.971444
9.451796 15.839657 0.423833
9.059462 3.355607 0.489210
10.614853 18.375800 0.539096
1.308534 8.517923 -0.024928
18.169885 17.473047 0.912780
13.354341 8.355272 0.602406
12.351714 10.604600 0.590836
18.529271 6.330283 0.918504
19.872744 13.161528 0.918282
3.267868 6.364023 0.160706
14.979940 4.463402 0.752420
11.598903 1.620946 0.617699
9.219944 1.153387 0.438309
19.552252 6.119487 0.991336
17.005260 14.729467 0.845492
13.935000 4.112401 0.675836
7.653523 5.984549 0.299147
13.320816 18.103428 0.660461
10.633882 12.783150 0.568920
4.987369 18.394448 0.202683
9.007626 18.224521 0.439492
4.244239 1.268214 0.208688
10.008406 19.100186 0.555542
14.404762 1.023559 0.721743
0.732924 18.512378 0.051051
15.307594 10.934669 0.764947
0.399880 10.663792 -0.004621
10.345554 14.265281 0.460554
11.469534 17.584225 0.559223
15.224869 12.340091 0.780911
15.220576 8.507997 0.767183
8.349109 2.237787 0.491431
1.327450 15.784186 0.113665
13.870003 2.565870 0.755528
10.219720 14.527317 0.409372
6.661169 10.558499 0.412025
4.697476 7.716718 0.248214
2.395164 12.259728 0.140204
5.902850 15.447122 0.339944
9.169793 18.822792 0.459555
9.552183 5.293938 0.424090
11.654779 18.942603 0.655109
7.249371 19.218961 0.324057
18.397957 16.272610 0.870612
9.917392 17.628743 0.484155
8.474501 13.848550 0.404425
0.963359 0.781944 0.048358
11.980302 11.501571 0.594105
12.057379 14.944091 0.670225
11.665793 18.834063 0.606256
17.751938 11.409037 0.844707
15.258017 15.884014 0.726876
17.348112 14.100774 0.847996
1.188451 5.616058 0.040213
6.362529 3.094562 0.292389
6.374239 15.018107 0.263625
13.140901 4.675367 0.671565
8.972301 4.893831 0.425835
15.549452 12.878925 0.729883
7.688611 15.781369 0.408704
4.432152 11.646642 0.263999
5.819021 17.699663 0.278669
3.649395 4.228865 0.271544
3.957854 5.048289 0.308669
4.336778 12.739110 0.241683
0.321894 16.587364 -0.007346
14.321761 10.787036 0.729536
7.992047 0.207631 0.338380
0.453427 13.538863 -0.020922
7.400151 16.271649 0.285873
18.107363 5.530873 0.873945
10.224886 1.083965 0.449618
19.735040 10.359040 1.017955
10.799189 0.843104 0.502502
19.255980 8.320335 0.976630
4.036015 0.356357 0.239196
5.798696 4.499334 0.348502
13.999402 7.776449 0.682299
19.736432 2.234118 1.002353
16.505948 2.283118 0.842422
11.074106 16.541235 0.617310
1.703052 0.828477 0.124331
7.287582 13.779325 0.429546
1.728514 16.289641 0.003193
6.225627 2.614447 0.278068
5.175842 3.907415 0.310383
7.771106 12.829866 0.417590
16.745532 6.312932 0.831024
3.007533 9.528461 0.126674
6.121279 16.720054 0.345498
5.222345 2.759663 0.162138
5.922833 12.393050 0.335751
7.212469 18.847954 0.365158
4.886235 1.149333 0.219870
18.851625 1.200135 0.967703
8.402034 11.094847 0.400799
2.282265 19.201516 0.115564
9.353172 4.409473 0.465346
3.688638 6.615839 0.221658
4.322613 1.972959 0.224090
5.700828 7.244945 0.189585
2.495197 0.886650 0.055155
14.422379 7.781880 0.666911
15.838929 11.109755 0.814774
7.885698 19.500097 0.422128
13.779851 16.367760 0.772510
7.779086 16.441308 0.338233
3.281546 4.562886 0.229540
7.943361 1.744694 0.300274
11.139748 12.061494 0.557875
0.819886 10.422764 0.053254
13.089688 10.330078 0.666564
14.852159 2.180160 0.727128
17.199405 9.877698 0.865865
2.055411 3.007115 0.041010
0.001872 8.442292 0.043352
1.465327 1.243253 0.085756
18.482336 17.137852 0.942228
15.311114 0.263602 0.751605
16.708713 18.786463 0.819037
10.340276 17.257836 0.543250
10.534397 15.052161 0.606219
5.970112 19.651012 0.228824
16.855061 1.076400 0.770550
16.595392 12.831942 0.843080
7.843427 16.986042 0.375561
6.585341 2.532342 0.335472
14.767465 11.695500 0.737184
0.523363 7.878438 0.057269
17.198978 8.716542 0.845641
8.924960 18.250482 0.385837
8.826885 10.773029 0.401852
13.381557 1.865241 0.661055
12.914987 18.744323 0.583001
5.319481 3.704223 0.264131
18.865572 17.852736 0.946316
19.726600 19.418414 0.968440
10.519780 17.556749 0.536450
11.227616 13.542676 0.480667
11.086359 14.871036 0.506659
9.715748 13.997345 0.428652
18.903741 9.210488 0.989180
4.895049 5.488394 0.360061
2.159164 5.700055 0.063917
18.590946 14.623357 0.917785
4.260766 12.520729 0.178367
14.983107 11.697681 0.760217
4.077466 13.052177 0.173453
19.203720 15.495725 0.974325
15.822435 14.966818 0.824373
18.374363 2.107928 0.857527
19.019696 7.260701 0.964561
1.688488 5.279343 -0.005278
8.667777 10.764773 0.420562
12.962007 1.228322 0.631916
16.049122 15.249281 0.790999
4.829435 2.130547 0.225869
18.292097 5.428041 0.889859
4.419527 15.654830 0.207687
17.323528 1.031200 0.878083
10.254252 13.204021 0.526025
10.308443 18.489565 0.521182
7.480112 12.352756 0.345326
2.070105 14.253150 0.157522
6.941801 15.845337 0.423358
8.534734 4.444926 0.362316
9.580421 11.619278 0.487235
14.781906 6.181134 0.715688
7.041402 4.989908 0.398350
8.131857 3.849128 0.405963
18.121972 11.708612 0.908757
15.051346 15.890639 0.777316
0.457115 17.517781 0.007979
16.241775 8.571719 0.895963
19.798878 7.457980 1.015431
18.795355 13.746138 0.986348
16.719118 15.607185 0.824928
12.583475 5.066387 0.623031
5.563842 5.945818 0.318773
13.088612 10.667866 0.689990
13.911849 8.887714 0.633159
5.631163 14.115755 0.287940
5.106592 10.089700 0.279022
7.938477 2.231982 0.390409
12.822939 3.319064 0.660093
5.861245 18.038177 0.288663
11.113330 4.547967 0.443329
17.984748 1.001722 0.833693
5.902006 14.629091 0.343850
19.319475 13.680223 0.953755
9.466960 12.001520 0.482833
2.018167 10.045123 0.100725
1.100788 19.391607 0.013774
6.773490 2.396646 0.315321
5.175179 10.203256 0.275206
16.874267 11.280899 0.865263
14.752768 0.449858 0.847059
17.690926 8.239848 0.860659
11.785070 15.656043 0.672785
8.709145 9.421975 0.392437
5.411359 17.505569 0.294998
11.662177 12.895979 0.592002
12.360496 15.321707 0.611732
7.858951 16.089603 0.392665
18.731908 13.790005 0.905465
12.799092 14.987613 0.685150
16.749624 13.906211 0.795350
12.407815 11.009275 0.636267
6.330736 11.330659 0.354330
14.732383 3.797696 0.805829
4.605091 16.548785 0.278843
11.932187 6.242746 0.625231
8.047327 10.714738 0.370480
2.997697 4.990911 0.110596
8.264812 13.917300 0.356312
6.205617 19.503379 0.248568
2.244442 16.038805 0.112152
16.476565 12.381910 0.787457
9.971651 11.350131 0.558544
6.927125 9.795425 0.317408
10.099285 4.099429 0.509677
15.091662 6.960201 0.741351
0.365908 8.127881 -0.051897
10.935035 18.891381 0.601224
9.583016 8.511657 0.513925
17.861404 11.723807 0.933596
11.119433 18.448491 0.585719
2.746457 10.368528 0.099349
7.773664 5.028996 0.351681
12.421387 7.620122 0.643669
0.918676 7.510784 0.123080
17.692982 14.294351 0.903948
1.355647 5.922415 0.116706
0.611823 14.605772 0.004298
0.040311 17.784854 0.056908
13.674890 6.721460 0.662771
9.118402 2.706822 0.467928
2.056354 12.771087 0.084510
17.124170 7.217089 0.900666
4.054405 10.679723 0.247858
6.526483 12.683313 0.252485
3.554429 8.154859 0.243986
18.535126 18.493889 1.045577
15.161336 7.992293 0.740300
14.479068 6.147487 0.717613
0.879921 17.713504 0.105968
10.454034 2.726034 0.526040
11.509049 2.484179 0.575254
7.650417 18.713964 0.477369
6.435125 4.179368 0.254041
17.038857 2.968748 0.812495
0.460332 10.703366 0.043908
12.507097 0.935769 0.544378
7.884938 12.400300 0.375596
13.319014 9.058616 0.646842
3.958351 12.808239 0.246006
4.773187 5.678738 0.273302
11.737076 18.109444 0.502692
19.598771 5.411614 0.945282
19.493672 12.751294 0.940181
4.979620 18.901837 0.238152
2.047021 8.016186 0.047474
11.806865 3.228531 0.612926
8.399652 1.367650 0.385273
15.233734 19.260360 0.791118
10.559675 15.274030 0.527841
10.211736 18.379041 0.461933
12.929197 13.976661 0.715874
2.528369 6.848970 0.197305
13.543235 2.460332 0.691679
9.770394 18.586137 0.476559
16.402941 9.792381 0.767332
2.774137 7.930180 0.192263
6.014941 11.555841 0.341879
19.004927 2.131186 0.909547
11.061458 6.184076 0.518732
18.586020 12.757522 0.952147
13.780702 2.002459 0.630263
18.528627 2.704855 0.895147
6.356526 10.211757 0.265798
1.810675 12.469142 0.040117
16.044835 3.740034 0.766239
16.089375 0.661693 0.849769
12.376536 19.167338 0.531099
11.591404 0.549853 0.601244
18.298163 0.041041 0.927806
3.529969 6.466811 0.224916
12.330759 4.449063 0.629390
0.995412 11.471727 0.030829
2.817299 17.884178 0.100099
8.745447 9.622153 0.486793
16.424147 15.466024 0.846055
14.662654 18.184541 0.708476
19.481288 3.787993 1.019510
0.896973 9.766218 0.022555
7.627044 12.841400 0.381305
3.175816 6.637665 0.128567
0.739226 14.795042 0.063653
5.287951 14.106300 0.214688
4.889437 8.421886 0.229542
8.400554 1.759075 0.387300
2.801624 0.231376 0.153267
9.771352 7.386991 0.507992
18.401967 1.641377 0.864890
14.963779 15.632489 0.768511
16.843547 6.686516 0.768341
16.094572 13.321966 0.914327
7.792527 6.927580 0.364053
14.179221 15.918768 0.761424
15.085125 17.768250 0.764315
4.112962 16.750283 0.217738
17.205247 9.689471 0.801959
9.154948 1.679032 0.499919
0.327195 7.434222 0.018792
12.867682 8.489120 0.666891
13.535262 19.205080 0.672227
11.035246 11.309946 0.558264
4.248306 12.816925 0.168057
9.645561 15.640072 0.474633
8.002549 11.364049 0.379133
19.493721 11.969692 0.939408
16.493569 4.906556 0.831405
15.237992 1.177332 0.780069
3.621474 14.427718 0.193612
6.620800 16.973694 0.325927
7.594237 8.240004 0.400267
9.852551 10.978289 0.504736
0.604490 6.145705 0.035101
11.860185 9.004412 0.601317
7.157131 4.177795 0.417007
11.233543 15.197736 0.501423
0.179568 9.838236 -0.006951
6.428663 10.943131 0.338342
15.373321 0.741762 0.689529
10.021631 12.447968 0.570211
15.777747 4.053116 0.801628
13.979208 7.667893 0.746805
17.098412 8.254314 0.910909
0.148872 8.974652 0.028066
5.226510 4.548728 0.149696
10.976035 17.002204 0.556186
18.820362 8.557003 0.951612
13.595804 12.242689 0.625447
9.131776 12.278751 0.367105
2.602827 12.139693 0.153225
9.864307 11.186360 0.430756
8.821739 16.452515 0.544158
15.568865 16.252356 0.791600
8.266973 8.342891 0.480924
6.376761 12.716921 0.320396
1.794394 2.056585 0.127297
0.930021 1.815454 0.049164
8.782689 9.598328 0.489413
6.937240 18.004080 0.244945
11.106483 12.999994 0.599732
14.238569 13.384328 0.745367
0.800136 3.153466 0.032299
9.924342 9.066089 0.475759
17.239438 8.015819 0.847017
9.103332 15.659567 0.469305
10.424844 2.756482 0.581944
9.735837 10.783820 0.460082
7.795858 18.227030 0.304705
2.202390 17.849198 0.234349
2.527124 17.046742 0.159935
3.581785 7.499706 0.159529
15.851293 18.822014 0.852007
5.506646 16.106010 0.322017
18.962476 17.022826 0.972738
16.203403 18.647076 0.786318
13.690813 18.740025 0.717907
14.407873 4.801299 0.774872
0.952644 2.553754 -0.038371
11.367787 13.817499 0.579614
18.821138 11.264279 0.955966
0.782204 6.548530 0.052414
5.820330 13.688990 0.293326
1.030230 1.239938 0.110815
11.394832 0.944166 0.559176
2.324013 7.086212 0.116061
9.585003 3.876932 0.495033
14.398989 14.371121 0.711046
3.288771 18.960437 0.095138
15.107289 13.232548 0.766071
1.204089 13.095687 0.071477
2.992490 0.131911 0.131366
5.602207 10.245539 0.273495
15.921981 16.342026 0.637106
17.002738 13.082407 0.910557
4.407596 4.555648 0.265431
1.915677 16.969505 0.028892
16.959076 19.287534 0.814180
12.987349 5.579857 0.721794
12.589779 5.933411 5.997537
3.749078 7.611045 3.415692
19.708450 7.343431 3.026830
15.922161 17.408069 5.007640
15.778800 3.408089 6.785932
3.067604 7.629516 7.113171
0.354670 17.757396 5.749197
11.707427 0.306089 7.340034
2.882412 18.957340 3.629574
15.608669 17.978008 7.820529
8.321523 8.356963 7.608802
6.771885 13.060506 5.996186
1.472985 19.821333 3.293611
19.921302 11.098968 5.271014
19.120216 1.937974 3.896365
2.631938 17.072820 6.142126
6.656232 2.683032 3.949826
7.815751 5.145433 5.408988
5.936022 17.470307 4.028135
18.689371 5.120584 3.909226
14.426837 14.901719 4.239618
19.118328 8.953474 3.145982
17.490108 15.194979 6.580575
15.090830 4.647045 4.533632
13.939342 8.391310 6.490540
17.323250 6.363227 6.267391
13.682998 4.980881 3.330563
3.774396 6.288597 4.560174
12.962530 6.459844 5.834303
10.300033 19.107564 7.592006
19.637894 10.664607 5.006599
10.199311 9.241044 5.523958
0.769100 10.066371 6.750794
5.283790 19.922620 7.016477
18.347635 13.071782 7.616703
19.247127 14.069733 5.485947
14.569972 6.272437 3.969190
1.137278 9.430754 6.822106
0.470828 3.681308 3.627876
9.591900 13.703789 5.091712
19.993446 6.889891 6.141065
17.385935 14.965767 6.459281
18.662152 4.263226 6.665139
12.470830 8.070061 3.967662
17.182495 9.423687 7.908246
6.393967 3.330507 3.892093
0.547280 1.391822 3.480367
18.365013 6.341354 6.320252
4.368612 10.897843 7.550000
14.569727 13.053579 5.796919
13.179346 8.505427 5.977412
3.163271 10.005552 5.692424
3.915580 10.863859 3.213741
6.581450 10.238216 6.406558
15.138613 1.806571 4.790996
0.784885 8.100021 7.678369
8.141375 4.086628 3.933950
13.302264 10.674719 4.510579
3.429419 15.161525 5.524274
2.388345 11.589726 5.386775
7.804245 4.436437 5.001524
5.731184 4.155138 4.572015
12.981913 0.739963 3.735924
19.391371 8.527618 7.104609
0.089379 8.657231 5.243849
18.047598 4.728727 5.864783
8.664461 15.285169 5.732764
13.280155 7.729734 5.877445
17.020541 13.388028 6.524202
11.469173 12.801407 6.146905
1.946237 12.094809 4.369515
2.811904 18.161323 5.768550
15.785601 0.317802 4.222565
4.581965 1.360746 5.944182
11.380752 14.442813 5.159673
8.561610 7.070518 3.197092
6.072780 19.730448 6.669928
15.739351 4.328254 4.373332
14.624333 3.668381 7.600972
12.922178 11.764436 4.402786
7.453427 5.588506 7.983114
4.529406 6.809860 5.314756
10.317899 18.420486 3.132037
16.342082 0.524853 3.381345
11.513299 10.625188 3.410440
19.402793 6.697989 3.281072
0.308750 6.919840 4.338947
19.966936 4.956176 4.622944
13.828181 2.697002 3.556429
16.653480 0.689633 5.190657
6.699047 19.753910 4.826754
10.166827 13.207321 6.181620
15.939785 15.544106 3.979323
15.212989 1.300046 7.569927
6.680689 0.296748 5.579954
6.488205 12.005774 6.118665
13.256224 14.476628 3.197602
18.673184 7.897325 5.795443
8.775720 7.755102 4.840501
7.058836 7.689590 7.620860
17.893741 3.055117 7.428217
13.661121 15.078270 6.188244
7.765520 4.303855 6.839257
1.145525 6.488210 6.222966
14.429785 13.425195 3.084841
7.057730 0.002094 6.515633
1.411324 15.325144 3.885454
12.245782 17.981895 6.412855
6.460137 1.032348 3.052534
6.769130 11.832476 4.554534
9.583403 8.169179 5.584640
14.349495 1.569268 4.665853
5.526610 13.644620 6.469936
1.618918 12.246372 5.613548
8.488514 12.853207 7.798337
1.098508 16.269907 4.789062
13.945370 5.738380 6.609297
19.184869 13.541361 7.179208
13.175176 14.866354 4.268089
5.507809 3.376299 6.770657
3.634048 19.141338 4.966570
4.655671 6.799621 3.643636
4.432200 14.274165 3.018235
6.276610 15.080403 6.718788
1.946934 10.080618 3.931220
17.914381 2.574346 3.255968
17.702410 5.513259 5.486045
12.304725 4.684939 4.733490
1.238407 10.372847 6.459034
16.080015 5.225377 3.536821
1.235772 10.935410 3.663266
2.128424 5.764135 5.020539
6.505928 0.019583 5.602041
8.629406 7.265135 7.120970
7.077779 12.137017 5.928126
3.304596 15.473936 7.512987
2.242594 0.567289 4.088839
17.188305 5.166260 5.981098
7.263625 19.709242 6.276192
4.371988 5.236308 6.629025
9.739827 15.543953 7.943253
0.736468 10.187472 5.340169
12.005624 2.443480 4.846598
4.969792 12.868003 7.261033
11.963928 19.326817 3.883955
12.282503 17.736581 3.185140
16.184484 13.805856 5.217945
4.598095 10.242965 4.236029
9.269293 6.386660 4.982627
19.237747 7.139333 7.930417
14.542497 6.924135 4.742441
19.506876 18.441640 6.539829
18.547314 4.226249 4.252010
12.214972 7.560597 4.517115
5.278607 8.639265 4.215776
15.138483 8.178020 5.860804
13.962385 0.083965 4.130543
11.777802 5.419472 6.591821
13.956585 9.971371 6.401371
12.271728 15.209866 5.106348
10.387580 11.389480 3.127885
8.319110 7.697240 3.113256
0.894167 13.302818 5.664034
17.313758 13.317864 7.195994
17.310812 4.958494 5.994368
11.880946 2.075483 5.178252
5.357686 16.063670 7.410594
0.562621 10.595648 3.984977
0.028576 3.530495 4.797122
1.458148 5.241421 5.826547
7.197727 15.328490 4.458347
3.767919 13.065448 7.988562
5.301162 18.903331 5.261605
13.993208 9.298948 3.258611
19.182995 1.043733 3.880417
4.135517 14.008457 5.662404
9.312879 5.098215 5.750281
19.829588 6.477091 7.920721
18.633488 3.932965 5.999832
7.046326 6.178708 6.333137
6.393781 16.589610 4.068614
4.843413 11.534266 3.534324
3.108057 2.183075 6.010050
9.201042 11.732073 7.324400
6.822410 12.671267 5.936865
14.896752 17.696474 5.213916
4.737330 17.192909 5.891033
14.726645 1.257502 5.343858
5.762932 17.333962 3.709408
11.854576 1.017695 6.705922
12.768602 3.082440 5.665191
13.435629 2.231000 4.996614
3.506780 3.633945 5.798193
5.654227 16.065240 4.206135
4.922314 13.722387 5.139789
11.523208 13.739249 6.112226
1.514928 18.442552 4.130968
10.365129 7.837021 6.744975
1.749341 0.065749 5.605055
6.741120 12.795369 7.308534
13.734122 17.361488 7.236183
8.251281 19.525204 5.472585
5.606837 7.277855 3.977328
12.317144 16.443044 6.683209
14.805382 16.984554 5.093391
5.091699 2.888757 5.973137
5.987998 12.629971 3.536326
12.805878 3.462802 6.157920
19.304465 8.932616 4.867752
4.277431 17.585338 4.670949
13.084953 15.789342 7.899578
18.131797 11.406789 5.162153
9.239335 16.174183 6.390192
6.336885 3.056550 6.138638
13.337421 3.898387 3.521518
0.628636 4.177296 6.739638
7.203211 15.520271 4.615796
5.159481 17.819310 6.994698
4.492434 11.256726 6.038204
3.595185 19.159432 4.585457
14.741266 14.560605 4.781465
19.101996 11.273677 6.657537
7.695413 12.231811 5.750297
0.982066 16.990683 6.341755
14.378236 1.803614 3.791592
10.764087 3.360350 6.934883
14.472892 5.325900 4.601957
12.958083 17.895517 6.099306
18.108720 18.898899 3.573399
2.808804 7.123411 4.607101
3.383237 18.477145 6.244336
6.831384 10.936956 4.371031
9.827776 9.465475 7.401561
18.514276 16.655294 6.306142
18.139285 10.921669 7.351392
17.437442 9.089646 4.976954
4.450539 0.319270 3.169926
14.593528 0.257953 5.880700
7.669835 12.551828 4.695968
18.623659 1.468339 5.240942
4.290717 14.738906 6.405551
2.825159 12.446829 6.503323
16.847703 9.154591 3.137782
14.338152 14.196073 6.846513
16.428434 19.861427 5.467595
3.158868 4.927135 5.783494
17.695854 11.141114 4.489971
13.552407 16.857118 5.104169
13.031216 0.337498 6.551876
11.651677 4.070167 6.883569
15.297530 10.419173 4.935531
8.312166 11.044920 6.455588
2.656425 1.726665 4.290218
10.785297 8.148591 7.160113
14.962039 10.395695 6.049071
3.072949 8.459514 6.875933
4.480413 14.011925 5.385774
13.930912 15.427278 4.145546
5.393019 9.205232 5.146156
3.398817 8.513195 4.907427
17.787842 14.107273 4.663583
3.217907 11.106047 4.060869
6.882972 17.408789 6.795836
8.568606 9.622923 3.431758
9.522800 11.486550 7.437805
7.226199 2.576104 3.875124
18.250770 16.719945 7.899368
13.172504 8.445843 7.942340
7.189893 14.381266 4.991935
7.154394 8.589655 7.939105
10.059050 0.020245 7.345343
0.673264 8.008205 3.412151
18.532857 2.950044 7.736643
4.466188 7.972302 3.212572
13.951851 6.426879 3.909571
15.554455 4.050948 5.922978
16.547660 2.475442 3.403686
3.312846 14.571224 3.808639
10.733861 15.097206 7.767459
1.673487 5.299950 7.973439
16.095847 9.903804 6.990683
9.729031 9.281419 5.576047
3.169781 7.104951 7.501505
14.373579 5.552744 3.559494
6.623397 3.720635 7.714459
2.290132 17.457852 4.757765
9.221476 16.666250 7.307447
4.704932 8.343588 6.341867
19.004437 14.424025 7.801372
7.227233 9.966642 7.323390
11.449058 1.707665 7.439489
18.967220 16.447810 6.158772
7.874424 4.385431 7.165793
7.162537 14.136350 6.785656
3.248113 10.547959 3.808116
18.766071 13.810799 6.242984
16.014896 9.424061 3.740878
4.420220 14.051223 7.347281
6.653489 0.656251 3.329749
18.298236 0.817059 7.935233
10.745592 17.926799 5.003133
11.126686 14.993880 3.853147
12.962890 16.569350 7.678375
15.243276 9.131708 3.227130
18.785711 9.192937 5.350528
16.044501 10.680081 6.851136
18.690984 4.873241 4.583752
16.412195 14.670050 5.644173
0.928681 16.589088 6.502065
2.350692 18.144482 7.759882
17.697859 10.340677 3.513513
0.553929 8.291530 3.786134
15.883493 16.618665 5.544354
16.996875 15.053316 5.092375
8.309291 17.345464 5.053981
7.097095 13.114621 4.484808
3.888084 17.666266 5.803424
0.978377 1.780833 7.416442
14.907659 13.591232 3.804622
1.474542 1.775902 4.076432
18.893393 14.978153 6.354117
5.934869 12.568877 3.280988
15.884886 0.319840 6.368821
1.193653 11.985220 4.572281
10.725574 2.925596 4.789270
6.981991 2.848228 5.027747
0.600022 3.009260 4.747938
13.115987 9.676472 7.206048
18.863254 2.310405 7.730342
0.215055 2.513115 5.740057
5.408739 5.123360 5.909392
14.072115 0.017164 3.352416
17.425074 5.515795 6.565960
3.815583 12.368155 5.920494
1.414336 12.031411 3.251973
0.172828 19.390673 3.992128
4.304128 2.392602 4.009717
1.426346 17.311427 3.854840
7.187642 7.823795 6.293230
8.802515 7.740726 7.642198
9.598476 6.976218 6.814877
2.846586 2.494731 5.386867
9.279761 9.570101 5.020256
0.181033 15.747559 4.932291
4.788422 17.508648 6.006235
7.381721 19.257185 4.796103
2.367032 15.705850 4.130610
16.280092 12.461834 6.014215
4.024248 9.950676 4.953527
15.097794 17.497945 3.070624
9.477861 14.790272 3.111156
9.594862 3.225164 4.370683
12.903887 13.651010 5.562111
0.885554 8.620772 4.771198
1.575187 11.915994 3.120276
6.536870 17.967062 4.115759
8.336450 13.051411 3.482097
8.598816 18.774486 7.743160
13.537743 17.327394 4.564170
0.014100 2.578025 3.073832
19.182102 0.233038 6.302816
3.489748 7.688228 4.162240
4.972634 17.306600 5.833681
18.112544 4.602520 3.753727
0.109828 13.827998 7.920066
19.826122 9.519907 7.851296
0.719147 14.921555 6.279917
2.410910 3.299538 6.536013
4.802134 4.781821 5.129394
8.774433 4.850489 7.810897
10.369031 10.969316 5.118698
2.094369 5.792489 4.197340
1.473478 16.234447 3.576893
0.637181 6.935884 4.040627
5.135014 13.217023 5.861068
18.430659 18.970038 4.225459
7.796850 12.138474 6.271247
15.280148 4.843070 4.910923
3.803764 16.609133 7.434365
1.293585 0.250850 5.792390
11.085596 5.130743 6.113020
16.441848 7.749810 5.782799
17.969198 3.919577 7.427844
10.924092 12.080362 3.317098
5.880646 11.160012 3.336744
2.190235 8.129931 6.508701
13.356457 5.887589 6.839820
5.608736 8.678145 5.167947
16.879248 5.824045 4.761526
12.102422 4.425170 4.389725
17.177571 7.025403 4.171974
11.333060 12.046712 7.559793
15.434847 12.967817 4.475698
5.886103 5.946943 6.240394
10.061176 18.947961 6.935474
0.388127 5.239185 3.109833
12.156635 14.242642 3.169371
10.674787 1.629601 4.665687
15.105646 13.296891 6.480079
14.579119 9.198975 4.303993
12.552340 11.382157 3.007416
1.133708 3.681453 4.440739
18.060194 8.671279 3.450654
0.360384 15.325557 4.097067
16.065353 15.341697 4.665950
9.586927 4.751119 3.640287
16.359871 7.051986 6.531824
9.301397 0.076271 4.279601
12.938756 1.799243 6.305474
7.265310 2.534607 5.995164
14.873575 5.873027 7.490227
5.083524 15.180310 3.439666
14.387118 10.205003 4.073041
3.867653 15.852163 7.325892
14.443354 15.098114 7.110657
5.873426 11.742764 3.960528
5.572635 9.997204 3.538680
16.229879 18.626417 7.281207
16.273853 11.385404 3.890690
13.828047 9.656480 7.355549
18.478173 17.382416 7.805573
3.123874 1.428774 4.104033
5.386426 13.120526 7.201938
5.880282 2.260545 5.119155
6.105727 16.396433 6.943892
6.560640 15.853324 5.036978
13.940184 10.072001 3.351978
5.415163 13.220883 6.563476
5.718443 15.452434 3.753443
11.408292 9.666077 7.635125
3.867177 18.119158 5.088731
7.297750 8.740600 3.410001
1.158808 17.840450 4.142400
19.050942 11.654881 7.312588
6.346154 8.524865 4.605427
17.000843 0.081951 7.281640
10.598912 5.911118 3.861434
4.564243 17.358430 5.341091
3.868551 8.574256 7.391297
13.899215 8.429371 3.242024
19.297376 9.788214 4.521386
3.661394 5.726081 7.549258
2.308424 9.831025 5.982632
7.741987 7.515262 6.581161
7.876211 18.188851 7.210642
16.125059 11.279335 5.617982
9.377786 16.683019 7.226830
1.249224 13.737482 6.193823
18.413354 4.252060 6.428252
7.463758 17.353312 3.764272
13.370635 1.745416 7.695094
13.349765 8.972757 6.980422
1.126842 4.783109 4.270980
0.072093 10.751108 5.899973
1.760741 6.000992 4.882330
19.130623 14.456525 6.302010
15.879859 18.738374 7.968734
2.640246 14.181800 3.228732
12.297397 7.106207 7.762618
12.239475 12.001399 3.361957
0.011182 17.770522 5.303823
8.581285 5.400568 5.410546
14.235509 2.364095 4.343622
3.735857 2.615280 5.833496
17.018077 9.897060 7.169821
13.206098 14.642725 4.469811
0.138486 13.145155 3.352025
17.098284 9.077790 6.161419
0.388001 14.585961 6.758726
17.758576 12.679399 7.772615
6.674377 12.564615 3.797623
13.973005 4.047528 7.506799
15.748619 6.251669 5.410617
5.625376 6.888487 4.178791
7.128737 16.163815 7.813742
10.190835 15.502210 4.192146
11.653831 5.053455 6.667221
5.840838 1.103045 6.924434
19.847907 15.355676 5.152595
14.740093 8.197324 6.449924
5.483040 4.396063 5.862385
12.808644 2.340337 3.960164
8.707424 0.256293 6.799439
17.206578 8.554593 7.640081
6.579001 6.795276 5.443190
3.757080 13.929403 7.971551
0.922725 19.533309 5.139827
19.686185 4.135652 5.398683
7.184433 4.860723 6.369488
4.410369 6.746052 3.928851
9.835369 9.318753 7.509730
5.832786 13.953974 7.006364
4.658001 7.040630 7.362086
12.327690 2.084011 6.047793
1.496968 14.606833 7.418740
10.179859 15.892834 6.399862
7.748626 4.952973 5.557804
10.650586 2.735125 7.658954
6.408812 10.556021 5.198599
11.406418 4.166286 5.502849
1.636371 7.483269 3.847719
7.523179 15.547224 7.738295
4.749972 4.392141 4.105264
8.761794 16.125185 4.007080
7.966722 13.480400 3.505973
12.623673 4.394517 5.266797
12.575155 10.528092 4.368073
8.267295 12.281415 6.703905
3.632463 4.005521 4.537608
11.638273 2.898987 6.603851
19.330307 10.623359 3.979805
3.708854 13.876823 4.149829
1.381184 9.301377 7.030871
5.291224 1.400785 4.855468
8.258407 18.504254 3.558870
6.123768 13.899309 7.807019
16.694194 12.423926 3.886961
9.860553 12.872540 3.750986
4.922558 7.972112 4.791910
19.003981 19.688010 3.478169
2.501256 2.653584 3.778082
2.458229 14.782828 7.232223
4.905697 8.417519 3.857534
1.535442 17.621921 3.557134
15.033054 14.345225 7.399788
6.256217 11.245044 5.218983
14.596760 18.753873 3.785815
15.254749 18.248867 5.907587
4.750371 1.046680 3.207529
10.367273 3.851761 5.136913
10.391844 13.520932 5.951569
17.427288 18.436789 7.785600
0.512617 8.606600 4.632324
6.336007 0.766105 6.825255
17.649788 12.865945 3.663499
4.736064 3.893740 5.167912
2.737600 11.046435 4.115674
11.522782 7.693665 5.462339
6.117535 11.160541 5.086159
9.345890 18.648726 7.898925
16.400255 9.716012 7.587490
10.413940 0.690576 5.911029
10.317796 11.618360 3.882549
5.563654 6.514911 5.784785
15.857311 15.562698 6.960411
14.796292 9.398569 3.190136
4.682410 14.827415 5.170147
6.400090 18.176420 3.213235
15.772564 7.245480 4.219790
7.154356 19.787558 3.460573
8.071192 2.996257 7.802891
7.288245 12.878634 3.844143
3.232651 0.695352 3.750519
6.817931 4.261133 7.860275
16.058706 12.675572 5.579836
9.821507 0.923835 6.789925
9.164350 2.035742 4.636573
3.127024 5.820212 5.664304
3.551397 11.512743 3.034269
0.859003 0.319651 5.044092
0.279111 9.647085 5.775449
9.760281 12.514875 5.572051
8.184647 8.050456 5.029098
5.507551 1.352796 6.939538
19.800931 12.217493 5.508204
7.959924 12.116708 6.180603
15.776938 10.120847 3.923106
4.210912 13.862910 7.307500
4.940824 4.156035 4.814181
11.367827 13.570815 5.410518
0.080565 3.229095 4.760974
0.348509 7.853873 7.459536
2.844374 1.351333 7.503701
4.462421 16.382547 4.121422
10.556990 10.764668 6.763573
13.724589 19.420984 3.514418
6.237573 18.846532 3.149252
4.781419 19.971223 7.182921
16.456224 2.025323 3.655891
3.255540 12.131608 3.773914
13.566531 8.151504 6.032941
18.626610 10.653292 7.083843
4.644218 6.175347 3.948005
1.739307 0.961377 3.570961
19.595178 14.155005 3.386612
5.415476 19.316341 3.124232
5.513264 10.647637 3.582396
9.675446 6.591599 7.713460
4.621153 18.765565 3.476413
19.857447 7.293331 5.987795
0.859318 18.290584 7.604832
9.029462 17.113817 6.139101
10.966935 10.574220 3.163729
9.339017 13.537453 5.982069
10.410459 14.006349 7.515327
19.751583 12.821834 4.612795
17.538032 3.214999 4.568140
6.168874 13.855524 4.244318
11.029541 0.064362 5.527723
0.006220 14.200736 4.189714
8.191380 11.096723 6.618944
