ply
format ascii 1.0
comment terrain heightmap
element vertex 1000
property float x
property float y
property float z
end_header
0.000000 0.000000 0.000000
0.322581 0.000000 0.349273
0.645161 0.000000 0.665843
0.967742 0.000000 0.920381
1.290323 0.000000 1.089957
1.612903 0.000000 1.160404
1.935484 0.000000 1.127784
2.258065 0.000000 0.998788
2.580645 0.000000 0.790053
2.903226 0.000000 0.526439
3.225806 0.000000 0.238466
3.548387 0.000000 -0.040829
3.870968 0.000000 -0.279307
4.193548 0.000000 -0.449040
4.516129 0.000000 -0.529190
4.838710 0.000000 -0.508161
5.161290 0.000000 -0.384795
5.483871 0.000000 -0.168491
5.806452 0.000000 0.121766
6.129032 0.000000 0.459360
6.451613 0.000000 0.812794
6.774194 0.000000 1.148935
7.096774 0.000000 1.436434
7.419355 0.000000 1.648963
7.741935 0.000000 1.767923
8.064516 0.000000 1.784371
8.387097 0.000000 1.699938
8.709677 0.000000 1.526661
9.032258 0.000000 1.285744
9.354839 0.000000 1.005366
9.677419 0.000000 0.717780
10.000000 0.000000 0.455979
0.000000 0.322581 0.000000
0.322581 0.322581 0.332922
0.645161 0.322581 0.634827
0.967742 0.322581 0.877900
1.290323 0.322581 1.040393
1.612903 0.322581 1.108870
1.935484 0.322581 1.079596
2.258065 0.322581 0.958918
2.580645 0.322581 0.762614
2.903226 0.322581 0.514260
3.225806 0.322581 0.242805
3.548387 0.322581 -0.020420
3.870968 0.322581 -0.244934
4.193548 0.322581 -0.404248
4.516129 0.322581 -0.478601
4.838710 0.322581 -0.456993
5.161290 0.322581 -0.338326
5.483871 0.322581 -0.131515
5.806452 0.322581 0.145434
6.129032 0.322581 0.467280
6.451613 0.322581 0.804147
6.774194 0.322581 1.124614
7.096774 0.322581 1.398949
7.419355 0.322581 1.602179
7.741935 0.322581 1.716667
8.064516 0.322581 1.733930
8.387097 0.322581 1.655516
8.709677 0.322581 1.492841
9.032258 0.322581 1.266014
9.354839 0.322581 1.001762
9.677419 0.322581 0.730673
10.000000 0.322581 0.484039
0.000000 0.645161 0.000000
0.322581 0.645161 0.285554
0.645161 0.645161 0.544978
0.967742 0.645161 0.754839
1.290323 0.645161 0.896814
1.612903 0.645161 0.959585
1.935484 0.645161 0.940005
2.258065 0.645161 0.843421
2.580645 0.645161 0.683125
2.903226 0.645161 0.478980
3.225806 0.645161 0.255373
3.548387 0.645161 0.038699
3.870968 0.645161 -0.145362
4.193548 0.645161 -0.274495
4.516129 0.645161 -0.332051
4.838710 0.645161 -0.308765
5.161290 0.645161 -0.203712
5.483871 0.645161 -0.024401
5.806452 0.645161 0.213999
6.129032 0.645161 0.490222
6.451613 0.645161 0.779100
6.774194 0.645161 1.054161
7.096774 0.645161 1.290358
7.419355 0.645161 1.466653
7.741935 0.645161 1.568186
8.064516 0.645161 1.587812
8.387097 0.645161 1.526833
8.709677 0.645161 1.394869
9.032258 0.645161 1.208859
9.354839 0.645161 0.991320
9.677419 0.645161 0.768021
10.000000 0.645161 0.565326
0.000000 0.967742 0.000000
0.322581 0.967742 0.212057
0.645161 0.967742 0.405565
0.967742 0.967742 0.563892
1.290323 0.967742 0.674031
1.612903 0.967742 0.727948
1.935484 0.967742 0.723410
2.258065 0.967742 0.664212
2.580645 0.967742 0.559788
2.903226 0.967742 0.424238
3.225806 0.967742 0.274874
3.548387 0.967742 0.130432
3.870968 0.967742 0.009139
4.193548 0.967742 -0.073165
4.516129 0.967742 -0.104660
4.838710 0.967742 -0.078771
5.161290 0.967742 0.005160
5.483871 0.967742 0.141802
5.806452 0.967742 0.320387
6.129032 0.967742 0.525820
6.451613 0.967742 0.740236
6.774194 0.967742 0.944844
7.096774 0.967742 1.121865
7.419355 0.967742 1.256366
7.741935 0.967742 1.337798
8.064516 0.967742 1.361089
8.387097 0.967742 1.327164
8.709677 0.967742 1.242851
9.032258 0.967742 1.120175
9.354839 0.967742 0.975118
9.677419 0.967742 0.825973
10.000000 0.967742 0.691453
0.000000 1.290323 0.000000
0.322581 1.290323 0.120011
0.645161 1.290323 0.230970
0.967742 1.290323 0.324758
1.290323 1.290323 0.395027
1.612903 1.290323 0.437856
1.935484 1.290323 0.452155
2.258065 1.290323 0.439776
2.580645 1.290323 0.405325
2.903226 1.290323 0.355682
3.225806 1.290323 0.299297
3.548387 1.290323 0.245314
3.870968 1.290323 0.202629
4.193548 1.290323 0.178974
4.516129 1.290323 0.180116
4.838710 1.290323 0.209266
5.161290 1.290323 0.266743
5.483871 1.290323 0.349947
5.806452 1.290323 0.453622
6.129032 1.290323 0.570401
6.451613 1.290323 0.691564
6.774194 1.290323 0.807940
7.096774 1.290323 0.910852
7.419355 1.290323 0.993011
7.741935 1.290323 1.049269
8.064516 1.290323 1.077150
8.387097 1.290323 1.077107
8.709677 1.290323 1.052471
9.032258 1.290323 1.009111
9.354839 1.290323 0.954828
9.677419 1.290323 0.898550
10.000000 1.290323 0.849409
0.000000 1.612903 0.000000
0.322581 1.612903 0.018913
0.645161 1.612903 0.039204
0.967742 1.612903 0.062105
1.290323 1.612903 0.088583
1.612903 1.612903 0.119233
1.935484 1.612903 0.154222
2.258065 1.612903 0.193268
2.580645 1.612903 0.235671
2.903226 1.612903 0.280383
3.225806 1.612903 0.326121
3.548387 1.612903 0.371494
3.870968 1.612903 0.415149
4.193548 1.612903 0.455909
4.516129 1.612903 0.492899
4.838710 1.612903 0.525630
5.161290 1.612903 0.554053
5.483871 1.612903 0.578564
5.806452 1.612903 0.599961
6.129032 1.612903 0.619367
6.451613 1.612903 0.638105
6.774194 1.612903 0.657571
7.096774 1.612903 0.679085
7.419355 1.612903 0.703755
7.741935 1.612903 0.732363
8.064516 1.612903 0.765287
8.387097 1.612903 0.802457
8.709677 1.612903 0.843367
9.032258 1.612903 0.887124
9.354839 1.612903 0.932542
9.677419 1.612903 0.978264
10.000000 1.612903 1.022900
0.000000 1.935484 0.000000
0.322581 1.935484 -0.080808
0.645161 1.935484 -0.149952
0.967742 1.935484 -0.196971
1.290323 1.935484 -0.213689
1.612903 1.935484 -0.195051
1.935484 1.935484 -0.139654
2.258065 1.935484 -0.049883
2.580645 1.935484 0.068327
2.903226 1.935484 0.206110
3.225806 1.935484 0.352581
3.548387 1.935484 0.495956
3.870968 1.935484 0.624775
4.193548 1.935484 0.729074
4.516129 1.935484 0.801423
4.838710 1.935484 0.837687
5.161290 1.935484 0.837450
5.483871 1.935484 0.804067
5.806452 1.935484 0.744308
6.129032 1.935484 0.667666
6.451613 1.935484 0.585374
6.774194 1.935484 0.509250
7.096774 1.935484 0.450474
7.419355 1.935484 0.418437
7.741935 1.935484 0.419773
8.064516 1.935484 0.457669
8.387097 1.935484 0.531546
8.709677 1.935484 0.637110
9.032258 1.935484 0.766798
9.354839 1.935484 0.910560
9.677419 1.935484 1.056893
10.000000 1.935484 1.194029
0.000000 2.258065 0.000000
0.322581 2.258065 -0.168865
0.645161 2.258065 -0.316983
0.967742 2.258065 -0.425745
1.290323 2.258065 -0.480605
1.612903 2.258065 -0.472575
1.935484 2.258065 -0.399157
2.258065 2.258065 -0.264595
2.580645 2.258065 -0.079444
2.903226 2.258065 0.140524
3.225806 2.258065 0.375945
3.548387 2.258065 0.605861
3.870968 2.258065 0.809882
4.193548 2.258065 0.970289
4.516129 2.258065 1.073862
4.838710 2.258065 1.113244
5.161290 2.258065 1.087701
5.483871 2.258065 1.003195
5.806452 2.258065 0.871771
6.129032 2.258065 0.710315
6.451613 2.258065 0.538811
6.774194 2.258065 0.378277
7.096774 2.258065 0.248602
7.419355 2.258065 0.166492
7.741935 2.258065 0.143744
8.064516 2.258065 0.186032
8.387097 2.258065 0.292323
8.709677 2.258065 0.454978
9.032258 2.258065 0.660546
9.354839 2.258065 0.891149
9.677419 2.258065 1.126325
10.000000 2.258065 1.345142
0.000000 2.580645 0.000000
0.322581 2.580645 -0.236175
0.645161 2.580645 -0.444659
0.967742 2.580645 -0.600616
1.290323 2.580645 -0.684632
1.612903 2.580645 -0.684711
1.935484 2.580645 -0.597517
2.258065 2.580645 -0.428717
2.580645 2.580645 -0.192398
2.903226 2.580645 0.090391
3.225806 2.580645 0.393805
3.548387 2.580645 0.689871
3.870968 2.580645 0.951375
4.193548 2.580645 1.154669
4.516129 2.580645 1.282109
4.838710 2.580645 1.323876
5.161290 2.580645 1.278988
5.483871 2.580645 1.155405
5.806452 2.580645 0.969202
6.129032 2.580645 0.742916
6.451613 2.580645 0.503218
6.774194 2.580645 0.278163
7.096774 2.580645 0.094295
7.419355 2.580645 -0.026091
7.741935 2.580645 -0.067248
8.064516 2.580645 -0.021603
8.387097 2.580645 0.109464
8.709677 2.580645 0.315758
9.032258 2.580645 0.579328
9.354839 2.580645 0.876311
9.677419 2.580645 1.179398
10.000000 2.580645 1.460651
0.000000 2.903226 0.000000
0.322581 2.903226 -0.275793
0.645161 2.903226 -0.519809
0.967742 2.903226 -0.703545
1.290323 2.903226 -0.804722
1.612903 2.903226 -0.809573
1.935484 2.903226 -0.714271
2.258065 2.903226 -0.525319
2.580645 2.903226 -0.258882
2.903226 2.903226 0.060883
3.225806 2.903226 0.404317
3.548387 2.903226 0.739319
3.870968 2.903226 1.034658
4.193548 2.903226 1.263196
4.516129 2.903226 1.404683
4.838710 2.903226 1.447853
5.161290 2.903226 1.391580
5.483871 2.903226 1.244996
5.806452 2.903226 1.026550
6.129032 2.903226 0.762105
6.451613 2.903226 0.482269
6.774194 2.903226 0.219236
7.096774 2.903226 0.003470
7.419355 2.903226 -0.139445
7.741935 2.903226 -0.191438
8.064516 2.903226 -0.143817
8.387097 2.903226 0.001833
8.709677 2.903226 0.233814
9.032258 2.903226 0.531524
9.354839 2.903226 0.867578
9.677419 2.903226 1.210637
10.000000 2.903226 1.528639
0.000000 3.225806 0.000000
0.322581 3.225806 -0.283634
0.645161 3.225806 -0.534680
0.967742 3.225806 -0.723914
1.290323 3.225806 -0.828487
1.612903 3.225806 -0.834283
1.935484 3.225806 -0.737376
2.258065 3.225806 -0.544436
2.580645 3.225806 -0.272039
2.903226 3.225806 0.055043
3.225806 3.225806 0.406397
3.548387 3.225806 0.749104
3.870968 3.225806 1.051139
4.193548 3.225806 1.284672
4.516129 3.225806 1.428940
4.838710 3.225806 1.472387
5.161290 3.225806 1.413861
5.483871 3.225806 1.262725
5.806452 3.225806 1.037898
6.129032 3.225806 0.765902
6.451613 3.225806 0.478123
6.774194 3.225806 0.207575
7.096774 3.225806 -0.014504
7.419355 3.225806 -0.161877
7.741935 3.225806 -0.216014
8.064516 3.225806 -0.168002
8.387097 3.225806 -0.019466
8.709677 3.225806 0.217598
9.032258 3.225806 0.522064
9.354839 3.225806 0.865849
9.677419 3.225806 1.216818
10.000000 3.225806 1.542093
0.000000 3.548387 0.000000
0.322581 3.548387 -0.258887
0.645161 3.548387 -0.487739
0.967742 3.548387 -0.659622
1.290323 3.548387 -0.753475
1.612903 3.548387 -0.756290
1.935484 3.548387 -0.664448
2.258065 3.548387 -0.484096
2.580645 3.548387 -0.230511
2.903226 3.548387 0.073475
3.225806 3.548387 0.399831
3.548387 3.548387 0.718217
3.870968 3.548387 0.999118
4.193548 3.548387 1.216883
4.516129 3.548387 1.352376
4.838710 3.548387 1.394947
5.161290 3.548387 1.343533
5.483871 3.548387 1.206764
5.806452 3.548387 1.002077
6.129032 3.548387 0.753916
6.451613 3.548387 0.491209
6.774194 3.548387 0.244383
7.096774 3.548387 0.042228
7.419355 3.548387 -0.091073
7.741935 3.548387 -0.138441
8.064516 3.548387 -0.091664
8.387097 3.548387 0.047763
8.709677 3.548387 0.268783
9.032258 3.548387 0.551924
9.354839 3.548387 0.871304
9.677419 3.548387 1.197306
10.000000 3.548387 1.499626
0.000000 3.870968 0.000000
0.322581 3.870968 -0.204106
0.645161 3.870968 -0.383828
0.967742 3.870968 -0.517300
1.290323 3.870968 -0.587424
1.612903 3.870968 -0.583640
1.935484 3.870968 -0.503009
2.258065 3.870968 -0.350522
2.580645 3.870968 -0.138581
2.903226 3.870968 0.114277
3.225806 3.870968 0.385296
3.548387 3.870968 0.649845
3.870968 3.870968 0.883961
4.193548 3.870968 1.066822
4.516129 3.870968 1.182891
4.838710 3.870968 1.223521
5.161290 3.870968 1.187850
5.483871 3.870968 1.082885
5.806452 3.870968 0.922782
6.129032 3.870968 0.727384
6.451613 3.870968 0.520176
6.774194 3.870968 0.325862
7.096774 3.870968 0.167814
7.419355 3.870968 0.065664
7.741935 3.870968 0.033278
8.064516 3.870968 0.077324
8.387097 3.870968 0.196586
8.709677 3.870968 0.382089
9.032258 3.870968 0.618024
9.354839 3.870968 0.883380
9.677419 3.870968 1.154112
10.000000 3.870968 1.405617
0.000000 4.193548 0.000000
0.322581 4.193548 -0.124941
0.645161 4.193548 -0.233666
0.967742 4.193548 -0.311631
1.290323 4.193548 -0.347465
1.612903 4.193548 -0.334144
1.935484 4.193548 -0.269714
2.258065 4.193548 -0.157495
2.580645 4.193548 -0.005735
2.903226 4.193548 0.173239
3.225806 4.193548 0.364291
3.548387 4.193548 0.551040
3.870968 4.193548 0.717549
4.193548 4.193548 0.849969
4.516129 4.193548 0.937967
4.838710 4.193548 0.975794
5.161290 4.193548 0.962874
5.483871 4.193548 0.903868
5.806452 4.193548 0.808191
6.129032 4.193548 0.689041
6.451613 4.193548 0.562037
6.774194 4.193548 0.443607
7.096774 4.193548 0.349298
7.419355 4.193548 0.292165
7.741935 4.193548 0.281429
8.064516 4.193548 0.321527
8.387097 4.193548 0.411649
8.709677 4.193548 0.545827
9.032258 4.193548 0.713545
9.354839 4.193548 0.900831
9.677419 4.193548 1.091692
10.000000 4.193548 1.269766
0.000000 4.516129 0.000000
0.322581 4.516129 -0.029561
0.645161 4.516129 -0.052744
0.967742 4.516129 -0.063831
1.290323 4.516129 -0.058350
1.612903 4.516129 -0.033539
1.935484 4.516129 0.011370
2.258065 4.516129 0.075073
2.580645 4.516129 0.154325
2.903226 4.516129 0.244279
3.225806 4.516129 0.338983
3.548387 4.516129 0.431995
3.870968 4.516129 0.517047
4.193548 4.516129 0.588694
4.516129 4.516129 0.642872
4.838710 4.516129 0.677320
5.161290 4.516129 0.691812
5.483871 4.516129 0.688180
5.806452 4.516129 0.670128
6.129032 4.516129 0.642845
6.451613 4.516129 0.612473
6.774194 4.516129 0.585473
7.096774 4.516129 0.567958
7.419355 4.516129 0.565063
7.741935 4.516129 0.580414
8.064516 4.516129 0.615755
8.387097 4.516129 0.670768
8.709677 4.516129 0.743106
9.032258 4.516129 0.828634
9.354839 4.516129 0.921857
9.677419 4.516129 1.016485
10.000000 4.516129 1.106085
0.000000 4.838710 0.000000
0.322581 4.838710 0.072197
0.645161 4.838710 0.140274
0.967742 4.838710 0.200536
1.290323 4.838710 0.250094
1.612903 4.838710 0.287164
1.935484 4.838710 0.311248
2.258065 4.838710 0.323191
2.580645 4.838710 0.325087
2.903226 4.838710 0.320070
3.225806 4.838710 0.311984
3.548387 4.838710 0.304991
3.870968 4.838710 0.303140
4.193548 4.838710 0.309950
4.516129 4.838710 0.328046
4.838710 4.838710 0.358890
5.161290 4.838710 0.402626
5.483871 4.838710 0.458071
5.806452 4.838710 0.522833
6.129032 4.838710 0.593559
6.451613 4.838710 0.666280
6.774194 4.838710 0.736823
7.096774 4.838710 0.801238
7.419355 4.838710 0.856207
7.741935 4.838710 0.899389
8.064516 4.838710 0.929655
8.387097 4.838710 0.947212
8.709677 4.838710 0.953575
9.032258 4.838710 0.951417
9.354839 4.838710 0.944288
9.677419 4.838710 0.936250
10.000000 4.838710 0.931461
0.000000 5.161290 0.000000
0.322581 5.161290 0.169835
0.645161 5.161290 0.325478
0.967742 5.161290 0.454200
1.290323 5.161290 0.546050
1.612903 5.161290 0.594882
1.935484 5.161290 0.598984
2.258065 5.161290 0.561262
2.580645 5.161290 0.488935
2.903226 5.161290 0.392791
3.225806 5.161290 0.286077
3.548387 5.161290 0.183129
3.870968 5.161290 0.097894
4.193548 5.161290 0.042492
4.516129 5.161290 0.025968
4.838710 5.161290 0.053353
5.161290 5.161290 0.125149
5.483871 5.161290 0.237279
5.806452 5.161290 0.381502
6.129032 5.161290 0.546269
6.451613 5.161290 0.717910
6.774194 5.161290 0.882046
7.096774 5.161290 1.025073
7.419355 5.161290 1.135564
7.741935 5.161290 1.205448
8.064516 5.161290 1.230845
8.387097 5.161290 1.212462
8.709677 5.161290 1.155523
9.032258 5.161290 1.069229
9.354839 5.161290 0.965811
9.677419 5.161290 0.859264
10.000000 5.161290 0.763908
0.000000 5.483871 0.000000
0.322581 5.483871 0.253281
0.645161 5.483871 0.483761
0.967742 5.483871 0.670992
1.290323 5.483871 0.798987
1.612903 5.483871 0.857871
1.935484 5.483871 0.844896
2.258065 5.483871 0.764728
2.580645 5.483871 0.628966
2.903226 5.483871 0.454942
3.225806 5.483871 0.263936
3.548387 5.483871 0.078980
3.870968 5.483871 -0.077519
4.193548 5.483871 -0.186089
4.516129 5.483871 -0.232201
4.838710 5.483871 -0.207772
5.161290 5.483871 -0.111994
5.483871 5.483871 0.048581
5.806452 5.483871 0.260715
6.129032 5.483871 0.505853
6.451613 5.483871 0.762034
6.774194 5.483871 1.006159
7.096774 5.483871 1.216371
7.419355 5.483871 1.374313
7.741935 5.483871 1.467020
8.064516 5.483871 1.488255
8.387097 5.483871 1.439157
8.709677 5.483871 1.328116
9.032258 5.483871 1.169917
9.354839 5.483871 0.984206
9.677419 5.483871 0.793469
10.000000 5.483871 0.620709
0.000000 5.806452 0.000000
0.322581 5.806452 0.313926
0.645161 5.806452 0.598795
0.967742 5.806452 0.828548
1.290323 5.806452 0.982812
1.612903 5.806452 1.049001
1.935484 5.806452 1.023615
2.258065 5.806452 0.912600
2.580645 5.806452 0.730736
2.903226 5.806452 0.500111
3.225806 5.806452 0.247845
3.548387 5.806452 0.003289
3.870968 5.806452 -0.205002
4.193548 5.806452 -0.352213
4.516129 5.806452 -0.419829
4.838710 5.806452 -0.397548
5.161290 5.806452 -0.284341
5.483871 5.806452 -0.088558
5.806452 5.806452 0.172931
6.129032 5.806452 0.476480
6.451613 5.806452 0.794102
6.774194 5.806452 1.096360
7.096774 5.806452 1.355400
7.419355 5.806452 1.547828
7.741935 5.806452 1.657121
8.064516 5.806452 1.675331
8.387097 5.806452 1.603910
8.709677 5.806452 1.453550
9.032258 5.806452 1.243092
9.354839 5.806452 0.997574
9.677419 5.806452 0.745651
10.000000 5.806452 0.516638
0.000000 6.129032 0.000000
0.322581 6.129032 0.345514
0.645161 6.129032 0.658713
0.967742 6.129032 0.910615
1.290323 6.129032 1.078562
1.612903 6.129032 1.148556
1.935484 6.129032 1.116705
2.258065 6.129032 0.989622
2.580645 6.129032 0.783745
2.903226 6.129032 0.523639
3.225806 6.129032 0.239464
3.548387 6.129032 -0.036137
3.870968 6.129032 -0.271405
4.193548 6.129032 -0.438742
4.516129 6.129032 -0.517559
4.838710 6.129032 -0.496398
5.161290 6.129032 -0.374112
5.483871 6.129032 -0.159990
5.806452 6.129032 0.127207
6.129032 6.129032 0.461181
6.451613 6.129032 0.810806
6.774194 6.129032 1.143343
7.096774 6.129032 1.427817
7.419355 6.129032 1.638207
7.741935 6.129032 1.756139
8.064516 6.129032 1.772775
8.387097 6.129032 1.689725
8.709677 6.129032 1.518886
9.032258 6.129032 1.281208
9.354839 6.129032 1.004537
9.677419 6.129032 0.720744
10.000000 6.129032 0.462430
0.000000 6.451613 0.000000
0.322581 6.451613 0.344787
0.645161 6.451613 0.657334
0.967742 6.451613 0.908727
1.290323 6.451613 1.076359
1.612903 6.451613 1.146266
1.935484 6.451613 1.114564
2.258065 6.451613 0.987850
2.580645 6.451613 0.782525
2.903226 6.451613 0.523097
3.225806 6.451613 0.239657
3.548387 6.451613 -0.035230
3.870968 6.451613 -0.269877
4.193548 6.451613 -0.436752
4.516129 6.451613 -0.515311
4.838710 6.451613 -0.494123
5.161290 6.451613 -0.372047
5.483871 6.451613 -0.158347
5.806452 6.451613 0.128259
6.129032 6.451613 0.461533
6.451613 6.451613 0.810422
6.774194 6.451613 1.142262
7.096774 6.451613 1.426151
7.419355 6.451613 1.636128
7.741935 6.451613 1.753861
8.064516 6.451613 1.770533
8.387097 6.451613 1.687751
8.709677 6.451613 1.517383
9.032258 6.451613 1.280331
9.354839 6.451613 1.004377
9.677419 6.451613 0.721317
10.000000 6.451613 0.463677
0.000000 6.774194 0.000000
0.322581 6.774194 0.311820
0.645161 6.774194 0.594801
0.967742 6.774194 0.823079
1.290323 6.774194 0.976431
1.612903 6.774194 1.042367
1.935484 6.774194 1.017411
2.258065 6.774194 0.907467
2.580645 6.774194 0.727203
2.903226 6.774194 0.498543
3.225806 6.774194 0.248404
3.548387 6.774194 0.005916
3.870968 6.774194 -0.200577
4.193548 6.774194 -0.346446
4.516129 6.774194 -0.413316
4.838710 6.774194 -0.390960
5.161290 6.774194 -0.278358
5.483871 6.774194 -0.083798
5.806452 6.774194 0.175979
6.129032 6.774194 0.477500
6.451613 6.774194 0.792989
6.774194 6.774194 1.093229
7.096774 6.774194 1.350574
7.419355 6.774194 1.541805
7.741935 6.774194 1.650522
8.064516 6.774194 1.668838
8.387097 6.774194 1.598190
8.709677 6.774194 1.449196
9.032258 6.774194 1.240552
9.354839 6.774194 0.997110
9.677419 6.774194 0.747311
10.000000 6.774194 0.520251
0.000000 7.096774 0.000000
0.322581 7.096774 0.250014
0.645161 7.096774 0.477565
0.967742 7.096774 0.662505
1.290323 7.096774 0.789086
1.612903 7.096774 0.847576
1.935484 7.096774 0.835270
2.258065 7.096774 0.756764
2.580645 7.096774 0.623485
2.903226 7.096774 0.452509
3.225806 7.096774 0.264803
3.548387 7.096774 0.083057
3.870968 7.096774 -0.070652
4.193548 7.096774 -0.177141
4.516129 7.096774 -0.222095
4.838710 7.096774 -0.197551
5.161290 7.096774 -0.102711
5.483871 7.096774 0.055967
5.806452 7.096774 0.265443
6.129032 7.096774 0.507435
6.451613 7.096774 0.760307
6.774194 7.096774 1.001301
7.096774 7.096774 1.208883
7.419355 7.096774 1.364968
7.741935 7.096774 1.456781
8.064516 7.096774 1.478179
8.387097 7.096774 1.430283
8.709677 7.096774 1.321360
9.032258 7.096774 1.165975
9.354839 7.096774 0.983486
9.677419 7.096774 0.796044
10.000000 7.096774 0.626315
0.000000 7.419355 0.000000
0.322581 7.419355 0.165744
0.645161 7.419355 0.317718
0.967742 7.419355 0.443572
1.290323 7.419355 0.533651
1.612903 7.419355 0.581989
1.935484 7.419355 0.586929
2.258065 7.419355 0.551287
2.580645 7.419355 0.482070
2.903226 7.419355 0.389744
3.225806 7.419355 0.287162
3.548387 7.419355 0.188234
3.870968 7.419355 0.106493
4.193548 7.419355 0.053698
4.516129 7.419355 0.038624
4.838710 7.419355 0.066154
5.161290 7.419355 0.136775
5.483871 7.419355 0.246530
5.806452 7.419355 0.387424
6.129032 7.419355 0.548250
6.451613 7.419355 0.715747
6.774194 7.419355 0.875961
7.096774 7.419355 1.015694
7.419355 7.419355 1.123859
7.741935 7.419355 1.192625
8.064516 7.419355 1.218226
8.387097 7.419355 1.201349
8.709677 7.419355 1.147062
9.032258 7.419355 1.064293
9.354839 7.419355 0.964909
9.677419 7.419355 0.862490
10.000000 7.419355 0.770928
0.000000 7.741935 0.000000
0.322581 7.741935 0.067704
0.645161 7.741935 0.131752
0.967742 7.741935 0.188863
1.290323 7.741935 0.236475
1.612903 7.741935 0.273003
1.935484 7.741935 0.298007
2.258065 7.741935 0.312235
2.580645 7.741935 0.317547
2.903226 7.741935 0.316723
3.225806 7.741935 0.313176
3.548387 7.741935 0.310598
3.870968 7.741935 0.312585
4.193548 7.741935 0.322258
4.516129 7.741935 0.341948
4.838710 7.741935 0.372950
5.161290 7.741935 0.415395
5.483871 7.741935 0.468232
5.806452 7.741935 0.529337
6.129032 7.741935 0.595735
6.451613 7.741935 0.663905
6.774194 7.741935 0.730140
7.096774 7.741935 0.790937
7.419355 7.741935 0.843352
7.741935 7.741935 0.885304
8.064516 7.741935 0.915795
8.387097 7.741935 0.935005
8.709677 7.741935 0.944282
9.032258 7.741935 0.945996
9.354839 7.741935 0.943298
9.677419 7.741935 0.939793
10.000000 7.741935 0.939172
0.000000 8.064516 0.000000
0.322581 8.064516 -0.033993
0.645161 8.064516 -0.061151
0.967742 8.064516 -0.075345
1.290323 8.064516 -0.071784
1.612903 8.064516 -0.047507
1.935484 8.064516 -0.001691
2.258065 8.064516 0.064267
2.580645 8.064516 0.146888
2.903226 8.064516 0.240978
3.225806 8.064516 0.340159
3.548387 8.064516 0.437526
3.870968 8.064516 0.526364
4.193548 8.064516 0.600834
4.516129 8.064516 0.656584
4.838710 8.064516 0.691188
5.161290 8.064516 0.704407
5.483871 8.064516 0.698202
5.806452 8.064516 0.676543
6.129032 8.064516 0.644991
6.451613 8.064516 0.610129
6.774194 8.064516 0.578881
7.096774 8.064516 0.557798
7.419355 8.064516 0.552383
7.741935 8.064516 0.566521
8.064516 8.064516 0.602083
8.387097 8.064516 0.658728
8.709677 8.064516 0.733939
9.032258 8.064516 0.823286
9.354839 8.064516 0.920880
9.677419 8.064516 1.019980
10.000000 8.064516 1.113691
0.000000 8.387097 0.000000
0.322581 8.387097 -0.128855
0.645161 8.387097 -0.241090
0.967742 8.387097 -0.321798
1.290323 8.387097 -0.359327
1.612903 8.387097 -0.346478
1.935484 8.387097 -0.281247
2.258065 8.387097 -0.167037
2.580645 8.387097 -0.012302
2.903226 8.387097 0.170324
3.225806 8.387097 0.365329
3.548387 8.387097 0.555924
3.870968 8.387097 0.725776
4.193548 8.387097 0.860689
4.516129 8.387097 0.950075
4.838710 8.387097 0.988040
5.161290 8.387097 0.973996
5.483871 8.387097 0.912718
5.806452 8.387097 0.813856
6.129032 8.387097 0.690937
6.451613 8.387097 0.559967
6.774194 8.387097 0.437787
7.096774 8.387097 0.340326
7.419355 8.387097 0.280967
7.741935 8.387097 0.269162
8.064516 8.387097 0.309455
8.387097 8.387097 0.401018
8.709677 8.387097 0.537732
9.032258 8.387097 0.708823
9.354839 8.387097 0.899968
9.677419 8.387097 1.094777
10.000000 8.387097 1.276482
0.000000 8.709677 0.000000
0.322581 8.709677 -0.207097
0.645161 8.709677 -0.389502
0.967742 8.709677 -0.525072
1.290323 8.709677 -0.596492
1.612903 8.709677 -0.593068
1.935484 8.709677 -0.511825
2.258065 8.709677 -0.357816
2.580645 8.709677 -0.143602
2.903226 8.709677 0.112049
3.225806 8.709677 0.386089
3.548387 8.709677 0.653578
3.870968 8.709677 0.890250
4.193548 8.709677 1.075017
4.516129 8.709677 1.192146
4.838710 8.709677 1.232882
5.161290 8.709677 1.196352
5.483871 8.709677 1.089650
5.806452 8.709677 0.927112
6.129032 8.709677 0.728833
6.451613 8.709677 0.518594
6.774194 8.709677 0.321412
7.096774 8.709677 0.160956
7.419355 8.709677 0.057105
7.741935 8.709677 0.023901
8.064516 8.709677 0.068096
8.387097 8.709677 0.188459
8.709677 8.709677 0.375901
9.032258 8.709677 0.614414
9.354839 8.709677 0.882721
9.677419 8.709677 1.156470
10.000000 8.709677 1.410751
0.000000 9.032258 0.000000
0.322581 9.032258 -0.260647
0.645161 9.032258 -0.491079
0.967742 9.032258 -0.664196
1.290323 9.032258 -0.758812
1.612903 9.032258 -0.761839
1.935484 9.032258 -0.669636
2.258065 9.032258 -0.488389
2.580645 9.032258 -0.233465
2.903226 9.032258 0.072164
3.225806 9.032258 0.400298
3.548387 9.032258 0.720415
3.870968 9.032258 1.002819
4.193548 9.032258 1.221706
4.516129 9.032258 1.357824
4.838710 9.032258 1.400457
5.161290 9.032258 1.348536
5.483871 9.032258 1.210745
5.806452 9.032258 1.004626
6.129032 9.032258 0.754769
6.451613 9.032258 0.490278
6.774194 9.032258 0.241764
7.096774 9.032258 0.038192
7.419355 9.032258 -0.096111
7.741935 9.032258 -0.143961
8.064516 9.032258 -0.097095
8.387097 9.032258 0.042980
8.709677 9.032258 0.265141
9.032258 9.032258 0.549799
9.354839 9.032258 0.870916
9.677419 9.032258 1.198694
10.000000 9.032258 1.502647
0.000000 9.354839 0.000000
0.322581 9.354839 -0.283982
0.645161 9.354839 -0.535341
0.967742 9.354839 -0.724819
1.290323 9.354839 -0.829543
1.612903 9.354839 -0.835381
1.935484 9.354839 -0.738403
2.258065 9.354839 -0.545286
2.580645 9.354839 -0.272624
2.903226 9.354839 0.054784
3.225806 9.354839 0.406489
3.548387 9.354839 0.749539
3.870968 9.354839 1.051871
4.193548 9.354839 1.285627
4.516129 9.354839 1.430018
4.838710 9.354839 1.473478
5.161290 9.354839 1.414851
5.483871 9.354839 1.263513
5.806452 9.354839 1.038403
6.129032 9.354839 0.766071
6.451613 9.354839 0.477939
6.774194 9.354839 0.207057
7.096774 9.354839 -0.015303
7.419355 9.354839 -0.162874
7.741935 9.354839 -0.217106
8.064516 9.354839 -0.169077
8.387097 9.354839 -0.020413
8.709677 9.354839 0.216877
9.032258 9.354839 0.521643
9.354839 9.354839 0.865772
9.677419 9.354839 1.217093
10.000000 9.354839 1.542691
0.000000 9.677419 0.000000
0.322581 9.677419 -0.274694
0.645161 9.677419 -0.517722
0.967742 9.677419 -0.700688
1.290323 9.677419 -0.801388
1.612903 9.677419 -0.806107
1.935484 9.677419 -0.711030
2.258065 9.677419 -0.522638
2.580645 9.677419 -0.257037
2.903226 9.677419 0.061702
3.225806 9.677419 0.404025
3.548387 9.677419 0.737946
3.870968 9.677419 1.032346
4.193548 9.677419 1.260183
4.516129 9.677419 1.401281
4.838710 9.677419 1.444412
5.161290 9.677419 1.388454
5.483871 9.677419 1.242508
5.806452 9.677419 1.024958
6.129032 9.677419 0.761572
6.451613 9.677419 0.482850
6.774194 9.677419 0.220872
7.096774 9.677419 0.005991
7.419355 9.677419 -0.136299
7.741935 9.677419 -0.187990
8.064516 9.677419 -0.140424
8.387097 9.677419 0.004821
8.709677 9.677419 0.236089
9.032258 9.677419 0.532851
9.354839 9.677419 0.867820
9.677419 9.677419 1.209769
10.000000 9.677419 1.526751
0.000000 10.000000 0.000000
0.322581 10.000000 -0.233740
0.645161 10.000000 -0.440041
0.967742 10.000000 -0.594291
1.290323 10.000000 -0.677252
1.612903 10.000000 -0.677037
1.935484 10.000000 -0.590342
2.258065 10.000000 -0.422781
