ply
format ascii 1.0
element vertex 300
property float x
property float y
property float z
property uchar red
property uchar green
property uchar blue
end_header
9.2601 7.4662 2.7708 0 120 0
17.3312 0.1287 10.0556 3 120 5
17.9660 1.6163 11.0854 6 120 10
12.3330 0.8179 7.5804 9 120 15
14.0696 9.0404 14.5013 12 120 20
3.1431 4.7602 2.2190 15 120 25
10.1254 18.4766 11.8086 18 120 30
15.4842 7.6733 14.9219 21 120 35
2.0334 5.8236 13.4847 24 120 40
14.5141 8.4351 1.7542 27 120 45
5.3347 4.1978 5.6237 30 120 50
16.1902 3.9897 17.7280 33 120 55
17.5875 1.0958 7.5763 36 120 60
9.8342 0.4697 8.4945 39 120 65
18.1282 2.2409 11.9369 42 120 70
2.4246 11.5740 17.9061 45 120 75
4.0611 0.1651 1.6701 48 120 80
10.7954 0.3493 1.6967 51 120 85
9.9348 18.4185 8.4021 54 120 90
7.9627 12.7744 1.8684 57 120 95
11.5960 3.4511 12.1778 60 120 100
19.1665 1.0835 11.1012 63 120 105
12.1276 2.9861 5.3662 66 120 110
19.8977 19.9593 2.4267 69 120 115
14.1094 19.0185 4.7357 72 120 120
12.2225 0.8606 7.3189 75 120 125
13.4825 11.8052 15.4925 78 120 130
1.7348 6.9440 17.2807 81 120 135
11.6828 9.0260 8.0434 84 120 140
19.7214 11.4887 0.3673 87 120 145
15.9874 6.5742 8.6714 90 120 150
4.2685 8.8803 6.4942 93 120 155
1.7763 12.5902 2.0614 96 120 160
15.6820 0.5078 15.6144 99 120 165
16.1510 9.9466 14.1890 102 120 170
4.9652 14.7523 8.5001 105 120 175
4.6191 19.2815 8.0181 108 120 180
7.4594 17.1980 7.3872 111 120 185
13.3501 3.4212 16.8655 114 120 190
5.1782 1.0101 19.5052 117 120 195
3.4551 18.9304 19.7233 120 120 200
12.1312 0.2375 1.2182 123 120 205
4.1720 7.7776 12.2310 126 120 210
19.3287 7.0906 2.8129 129 120 215
11.2386 2.7460 1.7318 132 120 220
11.1192 13.9198 1.3119 135 120 225
9.0280 14.0769 15.2834 138 120 230
7.6600 17.7435 3.3816 141 120 235
14.3093 15.4341 17.6051 144 120 240
9.8887 1.9845 0.9692 147 120 245
10.5768 3.4666 12.5937 150 120 250
1.6854 15.6030 4.4482 153 120 255
0.2603 3.5170 9.1340 156 120 4
11.1849 7.7657 3.4610 159 120 9
9.6412 18.9287 10.7086 162 120 14
18.8257 0.5755 19.8631 165 120 19
17.7799 10.8871 10.4699 168 120 24
10.7425 18.1907 1.3116 171 120 29
12.8562 10.8430 6.0064 174 120 34
14.4985 14.4135 2.0642 177 120 39
13.9904 9.0706 9.8043 180 120 44
12.7352 1.0590 12.0584 183 120 49
7.4629 17.5747 4.6221 186 120 54
16.4624 14.5918 12.4997 189 120 59
17.5170 0.7200 11.9392 192 120 64
12.2655 13.5611 8.1335 195 120 69
1.3793 3.7818 12.1623 198 120 74
3.6263 1.2975 7.0959 201 120 79
9.4048 10.7114 0.5194 204 120 84
15.5115 6.6766 15.6564 207 120 89
0.1714 19.0808 11.8049 210 120 94
19.5273 19.7263 16.6557 213 120 99
2.1247 6.9753 4.6263 216 120 104
15.5997 3.8433 4.4231 219 120 109
2.2121 2.4018 18.7626 222 120 114
19.5239 7.4486 14.8211 225 120 119
9.3502 10.4403 7.3898 228 120 124
12.6943 4.7231 5.1273 231 120 129
10.3565 3.9472 8.7851 234 120 134
18.8780 0.4447 2.0651 237 120 139
15.9994 1.1561 5.0247 240 120 144
17.0328 12.1051 4.4140 243 120 149
1.1722 5.5037 6.0030 246 120 154
16.0056 19.5111 15.7258 249 120 159
18.0350 18.6136 17.5315 252 120 164
18.3995 19.3508 1.8883 255 120 169
6.3536 4.9437 12.0834 2 120 174
9.8341 6.9388 16.7421 5 120 179
7.9818 4.1786 5.5278 8 120 184
9.2350 12.2094 11.3688 11 120 189
8.7987 3.7267 8.0433 14 120 194
6.5005 3.4114 10.8776 17 120 199
3.7712 14.2320 13.1753 20 120 204
2.7539 12.5074 6.7569 23 120 209
8.9415 12.1311 15.2321 26 120 214
17.6715 14.6710 4.2247 29 120 219
10.8388 6.7074 0.3824 32 120 224
11.0492 9.4119 17.3381 35 120 229
6.4738 16.6714 10.2829 38 120 234
1.9819 14.3384 5.6932 41 120 239
10.6700 1.4285 0.2161 44 120 244
18.4198 0.8404 2.9822 47 120 249
3.2660 1.9210 16.4813 50 120 254
19.9047 12.9837 7.9092 53 120 3
17.7687 10.1241 2.6969 56 120 8
13.8042 7.1799 5.3985 59 120 13
6.4089 7.7008 3.6486 62 120 18
12.2501 17.3682 11.4154 65 120 23
0.1890 13.6842 0.4024 68 120 28
9.5758 17.3147 13.5430 71 120 33
18.1642 15.0927 5.4562 74 120 38
2.8742 9.0295 13.5959 77 120 43
4.6411 6.6210 14.9624 80 120 48
6.9530 12.0179 10.9082 83 120 53
18.5775 0.5246 3.7282 86 120 58
15.5709 13.3817 1.9314 89 120 63
2.6910 4.2158 10.8627 92 120 68
18.0470 4.3316 4.0564 95 120 73
13.7157 8.4619 16.9336 98 120 78
19.9796 18.7233 14.3133 101 120 83
9.9241 1.2181 16.1627 104 120 88
7.9710 9.2720 12.6429 107 120 93
19.2814 11.1196 18.3576 110 120 98
19.2826 1.6977 7.0927 113 120 103
17.7705 15.3482 19.3823 116 120 108
3.7267 10.6233 18.6573 119 120 113
10.7964 13.4080 19.4983 122 120 118
3.4661 1.1298 17.0774 125 120 123
11.6213 4.0071 16.6462 128 120 128
5.6704 2.5954 5.9530 131 120 133
0.7212 8.1163 15.5914 134 120 138
9.0806 19.2920 0.8383 137 120 143
3.4615 2.8765 11.4889 140 120 148
3.9933 13.3450 10.4641 143 120 153
11.6167 16.9000 15.7972 146 120 158
18.4466 3.0417 7.5850 149 120 163
19.2080 7.9362 5.7109 152 120 168
9.6363 3.6176 16.9666 155 120 173
12.7205 1.8913 19.2855 158 120 178
10.4082 5.0742 12.2533 161 120 183
18.9917 6.9372 0.2788 164 120 188
3.9535 1.1731 10.5723 167 120 193
6.2297 17.0312 4.1243 170 120 198
0.3018 9.2931 2.4671 173 120 203
6.2086 4.5100 3.5637 176 120 208
12.7242 18.7242 7.4022 179 120 213
12.7713 6.4625 18.3011 182 120 218
11.0577 0.5855 14.8364 185 120 223
4.1978 0.9379 0.3873 188 120 228
16.8052 14.1969 7.1612 191 120 233
11.1523 14.1083 1.5097 194 120 238
14.1164 14.1754 18.8468 197 120 243
1.1825 11.4484 10.1645 200 120 248
16.9226 7.2818 13.2486 203 120 253
17.9407 6.9756 10.3080 206 120 2
17.8712 0.6824 19.4807 209 120 7
6.2599 9.1465 5.7530 212 120 12
15.9539 10.6531 14.9546 215 120 17
2.0769 17.6080 16.4169 218 120 22
13.6063 4.4557 5.1924 221 120 27
9.0411 1.3019 19.0714 224 120 32
8.1565 19.0673 3.6584 227 120 37
12.9612 15.9752 12.8903 230 120 42
8.4624 0.3825 8.7097 233 120 47
7.8023 18.9000 19.4715 236 120 52
19.1373 19.6035 3.3781 239 120 57
0.5934 5.8415 0.1583 242 120 62
2.3768 11.5436 4.0184 245 120 67
12.2147 7.6127 5.4815 248 120 72
19.3861 3.7254 17.6472 251 120 77
10.5366 13.2593 2.8801 254 120 82
14.8991 17.7914 3.9620 1 120 87
9.4556 13.0659 9.4940 4 120 92
15.0400 12.8862 6.2801 7 120 97
13.6215 15.4617 9.2680 10 120 102
11.8072 12.6926 9.5374 13 120 107
1.7763 8.1537 15.5600 16 120 112
14.4787 1.4839 9.5613 19 120 117
11.7545 10.6585 2.9956 22 120 122
12.9342 13.9470 10.7140 25 120 127
18.7922 11.5525 0.2461 28 120 132
5.6975 14.0412 1.5960 31 120 137
19.3003 13.9808 15.2998 34 120 142
3.3984 0.1354 17.4610 37 120 147
10.2198 8.8409 10.3664 40 120 152
15.3640 7.4501 15.4551 43 120 157
3.2383 19.6058 13.9176 46 120 162
6.3715 9.5418 17.6275 49 120 167
6.5119 13.9807 18.1850 52 120 172
19.2129 5.1147 15.8948 55 120 177
12.1731 16.1712 1.3902 58 120 182
8.2600 9.0313 16.2907 61 120 187
9.0411 0.8405 4.1838 64 120 192
16.6309 17.6574 11.4758 67 120 197
1.5956 15.4630 17.3241 70 120 202
5.7432 9.6372 5.8141 73 120 207
1.0694 14.6774 3.1795 76 120 212
1.7412 18.1876 1.9271 79 120 217
15.1945 16.3010 5.0155 82 120 222
7.4436 4.4588 14.1618 85 120 227
19.4718 14.8796 9.8605 88 120 232
10.7478 8.1604 14.2879 91 120 237
5.3875 4.9080 13.9264 94 120 242
5.0985 19.7670 14.5439 97 120 247
3.6785 0.4268 11.9623 100 120 252
2.6804 9.9991 12.0034 103 120 1
16.1699 7.7616 10.9206 106 120 6
16.2904 2.6935 6.7193 109 120 11
16.1738 7.1621 18.6071 112 120 16
1.6797 1.6991 7.2638 115 120 21
9.2813 7.3518 4.4106 118 120 26
8.9566 17.8815 18.7526 121 120 31
12.5225 5.1320 11.6495 124 120 36
3.1498 1.2563 15.8996 127 120 41
5.3404 3.2139 16.3962 130 120 46
2.4481 4.7304 3.0339 133 120 51
17.8477 13.6322 3.6198 136 120 56
1.4389 18.1377 2.5689 139 120 61
14.2924 13.8017 11.7630 142 120 66
9.5786 8.3141 5.6233 145 120 71
12.9308 3.0138 9.5375 148 120 76
5.2043 7.3549 17.8170 151 120 81
11.3465 12.9071 12.9471 154 120 86
0.0285 15.6606 17.4995 157 120 91
14.9234 10.4468 16.9147 160 120 96
18.8827 5.5357 3.2820 163 120 101
6.7509 0.3637 4.7028 166 120 106
1.6518 0.1738 7.9963 169 120 111
0.1234 9.6140 17.0118 172 120 116
14.2610 1.0436 14.5591 175 120 121
3.8028 16.1165 12.8767 178 120 126
10.8837 8.7203 19.6098 181 120 131
4.1993 17.9712 4.0962 184 120 136
1.8801 4.3154 0.7447 187 120 141
16.6146 3.6970 11.4629 190 120 146
5.4869 7.1692 15.7174 193 120 151
10.9872 5.3431 14.9001 196 120 156
2.8722 0.8164 13.8970 199 120 161
17.0471 15.3034 13.9450 202 120 166
18.6153 18.5245 11.3436 205 120 171
3.5452 11.5854 8.5399 208 120 176
14.1675 6.9776 1.4518 211 120 181
3.8690 2.8481 14.6535 214 120 186
13.7668 10.6585 6.3564 217 120 191
14.5778 8.9505 9.8869 220 120 196
3.9319 19.9395 8.8510 223 120 201
9.4238 4.1561 8.9592 226 120 206
9.4158 8.5021 14.8810 229 120 211
6.6993 12.4575 13.4036 232 120 216
2.7048 16.4588 1.4016 235 120 221
5.1525 16.6236 2.3832 238 120 226
5.5171 8.2565 18.9147 241 120 231
19.3765 4.3555 12.8168 244 120 236
16.5919 10.2801 6.2911 247 120 241
3.0471 1.3961 0.8929 250 120 246
0.9587 14.4822 11.8221 253 120 251
1.3452 18.7305 19.7153 0 120 0
8.2935 7.2444 17.5101 3 120 5
13.3073 14.9023 3.6490 6 120 10
14.5734 8.8485 1.1083 9 120 15
0.9602 5.2866 4.6875 12 120 20
5.3694 18.2317 7.9469 15 120 25
4.1587 2.0964 1.1154 18 120 30
8.1145 8.4095 1.5846 21 120 35
10.3311 6.8894 0.3817 24 120 40
9.4778 3.1506 3.6073 27 120 45
15.0413 8.5724 7.1392 30 120 50
11.0921 14.6771 12.5434 33 120 55
18.9887 14.3118 6.8232 36 120 60
19.0662 0.3137 3.7608 39 120 65
2.4325 7.6322 7.0746 42 120 70
7.7829 12.6559 6.9565 45 120 75
9.6566 13.5441 18.5244 48 120 80
19.1449 7.3703 7.7009 51 120 85
19.8256 16.7953 17.5497 54 120 90
2.2905 5.7901 8.4893 57 120 95
6.1807 9.2717 18.8801 60 120 100
7.7546 10.1182 6.4733 63 120 105
11.7757 10.9069 3.6356 66 120 110
1.1898 15.0463 16.6122 69 120 115
6.7672 3.9900 2.0270 72 120 120
12.4611 11.5734 18.7085 75 120 125
13.5582 11.4669 11.8854 78 120 130
18.1836 18.4086 3.3558 81 120 135
2.4447 2.5640 0.2525 84 120 140
17.0283 19.2626 10.0138 87 120 145
15.2045 13.2462 13.1215 90 120 150
7.8539 19.1443 6.1503 93 120 155
2.0026 1.0568 15.7596 96 120 160
15.6041 17.0560 15.9887 99 120 165
4.5252 7.2659 5.6101 102 120 170
17.2926 0.0387 6.1021 105 120 175
13.0656 12.7414 0.0583 108 120 180
2.2526 3.3741 4.3864 111 120 185
10.2332 0.6143 16.5506 114 120 190
9.3128 13.0439 7.2369 117 120 195
16.9626 2.0789 17.3332 120 120 200
4.9339 10.2844 11.2509 123 120 205
13.4445 10.8495 14.3948 126 120 210
1.0194 10.6925 10.0130 129 120 215
