3.5695 8.1634 5.5493
9.0588 9.3858 0.9829
0.1975 12.5620 3.8903
3.5150 14.9347 7.0540
12.5469 7.1453 9.5860
2.2592 9.5229 13.0207
7.8477 11.1188 10.0712
0.9605 11.3735 8.8665
4.5190 0.4652 12.9829
7.0912 10.7824 13.1822
10.7119 13.8165 5.9245
12.0136 6.6693 14.0338
13.1830 1.4618 2.0395
3.2548 14.4822 6.5424
9.3997 4.5154 7.6086
5.7880 5.2637 8.7761
8.7638 13.5630 10.2297
13.9342 12.8460 14.8648
10.0691 2.4465 12.9096
14.4695 13.5704 8.5366
10.7073 3.1669 12.4741
8.6030 4.2744 0.9519
12.8091 14.8471 1.3278
12.0089 6.1569 2.2615
4.4084 11.5319 13.0915
0.6629 9.2180 0.6741
10.7766 4.9643 13.2136
14.7095 7.5813 14.9776
4.6451 1.1546 8.9964
0.4707 2.9608 6.1190
9.1570 2.3430 0.6365
13.0167 4.7075 14.3799
13.4499 5.6668 6.9061
7.8011 9.6583 8.9348
8.3889 9.3019 14.1093
7.6054 6.4679 10.8047
3.5645 4.5163 14.6670
7.8169 8.2265 0.1719
6.2282 8.6995 0.3008
9.2370 9.4827 0.9012
9.4101 6.9938 10.1892
5.2887 10.6043 11.0705
0.3327 0.9087 10.1403
14.4496 3.7668 6.8447
8.8901 4.8004 5.4593
4.6901 5.5373 8.9343
4.5061 5.6574 11.5841
0.4038 8.5389 11.0276
4.6503 3.3381 12.0571
3.5804 2.8109 6.5285
10.4710 1.5276 4.8295
5.0063 12.5031 6.5765
12.8330 2.5393 5.0507
9.7535 13.2735 6.7665
3.3754 1.8138 7.9444
2.8621 12.1017 12.5771
2.7538 4.1789 12.1084
9.6291 12.0939 5.1792
1.9453 4.3791 11.9079
4.0676 5.1953 6.2536
6.2966 6.1428 13.8092
2.3400 0.0699 14.1490
13.1997 14.8037 6.5153
14.2524 13.9107 3.3314
11.1828 12.5505 9.9448
7.7852 4.3356 5.1160
3.4120 1.0210 8.8302
4.3052 12.1529 0.6762
13.5541 10.4056 13.8578
13.4485 13.4951 8.6543
0.1972 11.1795 2.5773
4.4983 9.9434 7.8745
6.2063 14.0856 9.1825
5.1203 3.7871 12.9250
7.1580 11.7349 5.2776
2.9600 8.0196 12.2522
2.5695 11.8751 13.8265
12.0908 12.3525 0.1126
9.4291 12.9383 0.7490
4.0710 4.0288 7.9090
6.3448 7.0935 11.6475
0.0271 0.8225 1.9029
1.8694 1.0263 14.6204
12.8167 1.2919 7.5318
4.7384 4.7187 5.2693
9.7037 8.7992 5.4125
2.8662 4.9316 1.8563
8.3329 10.7406 5.7036
1.1985 2.6783 5.5991
9.0665 11.7393 5.7040
12.0174 9.3439 6.4739
5.5863 7.4423 10.5432
6.3077 10.4118 6.9126
3.6762 8.0376 10.4275
1.0737 6.3733 6.3878
13.1950 14.0473 5.6135
13.4678 11.8638 3.9327
6.9621 1.8472 12.1983
9.9343 13.3102 11.8870
10.0134 11.0060 8.4577
1.5470 8.8164 0.0735
2.1528 11.6146 0.6647
1.3770 1.4895 13.2070
2.6873 0.3523 12.6230
1.8193 12.6591 10.1030
12.5427 14.2862 8.6861
11.9812 0.5440 11.5113
7.6699 10.7274 1.6012
11.2345 14.0184 0.9171
4.8637 8.4597 12.4209
3.6319 2.6966 3.7495
9.2397 11.3031 5.9059
5.5121 5.9496 5.2543
6.2733 1.2489 7.5046
14.5958 6.1925 11.2111
2.4093 10.3626 11.3417
10.1078 7.7564 7.2558
9.6443 13.4610 2.2399
1.4379 11.2223 13.7492
7.7588 6.6458 10.7837
2.7917 4.0104 2.9877
8.7843 4.7227 3.4846
10.3670 14.3014 4.4380
10.5800 6.1980 12.8046
8.7697 4.0076 3.2641
0.3469 7.1923 5.7413
2.5837 5.4071 4.8306
11.6131 2.1542 14.8683
7.1938 8.9850 7.0208
12.5192 12.3242 8.3568
7.2195 10.8106 12.8497
6.0039 11.0038 14.4039
7.0109 3.4440 3.5217
10.7653 10.1303 14.3807
12.8082 3.6314 2.8443
3.8793 2.8078 10.5710
12.8789 13.4964 3.8251
12.9765 4.7013 6.3494
10.9345 1.2889 1.3896
12.5089 4.3765 5.3499
8.7045 10.1326 0.1033
5.0220 6.5433 7.2885
3.1514 8.7766 14.3301
5.8638 8.1653 1.7877
4.1214 9.9815 1.6879
13.3078 13.6314 1.4536
14.1193 5.6134 11.5863
11.3598 4.4330 10.1383
9.8112 12.0908 3.9839
11.3128 14.4199 10.0924
8.0425 1.6994 7.4082
5.2824 10.7714 10.1782
8.4959 2.7297 9.6850
9.4633 2.6866 13.3488
9.8306 1.8470 13.9777
2.1208 4.9729 10.8072
8.9615 8.3239 9.7123
6.8656 4.6866 2.6457
1.0289 10.7375 11.3172
8.1470 11.0946 5.3883
3.9877 5.7507 13.0881
0.6317 7.5707 3.7079
11.5335 5.3116 4.9929
6.0501 8.1225 11.5757
5.2933 12.7033 1.6820
4.0573 1.4947 1.6903
11.6847 10.9093 2.7727
2.8375 6.2498 11.1498
12.2362 11.2305 8.8787
2.1971 5.9763 2.9046
7.9140 8.5255 3.0312
3.7523 11.7249 0.4513
12.0473 13.3680 14.2398
5.7472 8.2891 8.7459
9.5046 14.6547 10.2995
4.4911 12.9002 7.2611
9.0205 10.9025 0.0356
11.5568 9.9291 7.3781
7.8546 6.9080 2.9015
7.9432 0.5559 7.5067
9.6894 6.6633 8.4901
14.3853 13.3808 2.0338
11.8856 9.3492 0.7591
5.3985 3.5012 1.1675
8.0832 13.9473 4.8468
13.0577 10.4199 2.0154
12.8744 9.0169 13.9046
10.7393 11.0958 5.1539
12.1002 13.9761 12.9219
6.5554 11.3527 7.2750
1.6368 0.6405 1.1691
3.0045 2.4123 7.4571
10.4892 8.0615 6.3317
9.7386 4.5697 6.9661
11.3565 6.0219 2.7088
13.4912 10.7954 5.5040
5.5646 7.9400 8.9471
3.3577 0.0405 3.1349
11.7477 2.1522 6.8998
2.9295 3.1393 2.5615
6.0562 2.5241 0.4122
1.6510 2.5235 7.3541
0.8958 0.3364 6.7203
6.1161 10.5516 0.7667
6.0495 5.9491 0.3999
14.4829 3.2837 1.4141
7.1188 2.4714 9.3368
5.1954 1.8592 0.7784
10.9151 4.1263 11.8176
6.9811 13.9938 4.5082
3.7496 3.9872 12.2200
9.4366 5.1711 1.4057
10.2360 14.5390 8.8839
0.0548 0.4545 1.3580
2.5550 0.5491 0.8092
9.8147 13.5045 3.0103
14.6077 7.1532 12.0538
13.7606 14.1013 0.5132
4.5708 9.1040 14.1981
1.3167 4.4015 12.7486
1.7201 5.8480 5.0127
10.2007 13.9278 2.6195
11.0969 11.0093 12.5349
8.3000 13.8525 5.4424
6.2208 3.4411 11.6920
7.2092 4.0419 2.5461
10.8094 9.0856 10.6594
5.8020 7.3067 2.3083
10.6605 0.3443 7.0039
11.3768 10.1600 1.4563
3.5576 12.6548 9.6357
13.1780 13.0839 6.7486
13.4534 10.9929 5.0057
5.5514 1.0809 5.9900
14.3354 1.5749 8.5334
1.6520 1.2133 9.7371
3.6103 0.7323 2.2901
9.6684 8.7834 0.1749
3.4489 14.5087 3.3012
8.4368 6.2943 11.7172
9.0653 11.8296 8.0283
2.8224 2.6641 1.1869
12.3827 1.6880 0.3599
14.4962 2.9889 13.3993
1.2866 6.9785 3.3413
12.4421 9.2313 9.6271
11.4210 13.0755 5.1907
9.0466 6.6839 1.6642
12.5307 8.9159 12.2220
3.0898 8.0877 6.9626
10.9201 1.1586 5.1922
7.2681 1.0729 8.2905
11.0298 6.3428 9.7262
9.0880 3.2125 5.2582
14.9362 5.0281 6.4624
1.2628 3.2683 2.4792
13.9640 10.8954 13.1208
14.7986 9.1821 13.9702
8.0357 6.2811 14.2208
13.5464 14.2441 7.2629
11.6019 6.1047 14.9595
13.8046 4.3807 14.0129
2.7688 1.4380 10.8354
4.4145 7.7919 9.5888
0.6084 11.1778 4.1397
6.4859 5.1718 11.1313
11.2019 4.3095 1.5504
4.4900 6.1662 1.1634
2.2982 11.4410 10.5064
14.6460 14.6948 13.1422
5.5887 2.4202 4.6791
6.9473 7.8891 8.1311
5.3957 12.7904 4.2778
6.9474 13.3022 12.1071
4.4610 3.6390 12.1001
0.1509 1.9722 7.9629
8.0375 2.4859 0.7539
3.0591 11.5500 6.9862
14.6893 11.7830 14.6885
0.5269 2.7756 0.1978
6.4854 5.0740 0.7689
8.1902 1.4073 4.6742
3.7085 12.0319 6.2733
3.9053 0.6601 6.4434
9.4123 10.1284 13.6883
12.1285 3.7106 2.0350
11.3747 11.8426 7.6325
12.4650 8.2779 4.1939
2.5311 0.2557 9.6464
13.4546 13.5924 7.0123
9.9823 13.9293 12.2101
9.0397 6.2164 7.7761
2.5619 2.7442 10.2568
14.8817 8.2060 6.1222
5.2785 6.8234 12.0442
6.7877 14.3889 2.3296
4.7236 7.8300 6.1781
12.7660 12.4140 13.9699
9.1870 0.4589 8.6176
8.2462 7.3138 4.1977
10.6409 13.6744 1.5369
10.0304 5.5695 7.7219
13.4355 14.4048 9.6533
2.9263 13.8106 2.7169
5.7495 12.4226 4.7429
4.0633 14.2487 14.1571
4.7609 5.8880 4.2292
1.9727 3.7534 14.7026
1.1889 3.4463 2.9999
1.1930 7.8937 11.1453
12.5743 9.4668 12.2671
0.0805 4.2329 14.4176
1.0407 4.0143 7.2426
4.0179 8.1919 0.7071
3.5392 14.3635 2.1633
13.5824 2.6687 14.8922
10.1190 9.7040 2.1332
0.8186 11.3920 2.6423
2.8440 12.3404 13.1223
0.7320 14.4115 8.0208
5.7358 1.6059 5.8480
14.8128 4.2115 1.9697
2.1788 1.9036 5.2863
13.7245 1.1545 2.8797
14.0896 14.9535 14.6989
3.6892 5.3156 14.2626
7.2761 10.5512 4.6991
0.3201 5.1806 11.2226
11.7291 8.5330 6.9610
8.0720 6.6343 8.0165
12.4946 3.0069 8.9147
13.9919 12.7252 2.6919
14.4518 12.6006 2.5188
3.9884 3.0354 0.7960
14.6756 6.1394 13.0902
1.7185 0.2088 13.0467
11.9101 14.8734 10.2821
7.8785 11.4906 1.3879
8.1057 6.6179 2.1951
9.0058 4.8475 7.5958
5.6026 4.7719 5.3766
9.0156 14.7075 14.0423
12.9328 12.5284 4.3019
14.6508 4.0463 1.8477
7.5121 10.9832 5.1152
9.6792 4.2359 14.5040
6.7935 7.1679 7.9715
13.1235 14.7980 7.9272
6.6233 9.2670 1.0392
6.3822 12.7122 11.6611
0.8903 12.8172 5.7604
14.7191 5.4992 3.2198
8.2306 13.2577 6.4664
13.0121 10.6705 5.4228
4.5091 7.5800 5.9852
5.5881 9.7758 13.1269
8.7662 2.1930 3.2987
5.5638 9.2202 2.0928
1.2232 4.8097 4.2447
0.4424 8.0819 13.8197
8.0154 11.0612 12.4262
12.5655 13.6957 6.6210
10.2365 1.8109 13.1997
5.6736 7.1303 13.3545
4.3014 2.8487 12.3538
8.9827 1.2726 0.4207
5.2691 0.1123 12.4865
2.7549 4.1126 5.8316
7.6757 6.4852 9.4299
9.8976 6.5431 1.4556
14.6867 10.3682 1.2531
6.6253 11.3036 14.8767
0.9901 0.1424 7.1991
6.3315 13.4161 12.3973
4.9736 6.2814 8.7428
13.2625 3.0290 5.8781
1.3269 9.6192 0.3984
14.0257 7.8559 8.6085
1.2792 3.4835 7.0317
12.8605 8.0858 4.2693
14.7311 9.9217 7.9257
3.0356 4.4784 13.4978
1.9934 7.9737 9.2995
5.3229 11.5306 13.6494
12.8631 11.0699 3.0537
0.8981 6.4924 4.6814
2.9086 13.0706 3.2411
12.3415 14.0646 1.7960
13.7037 5.9572 3.1793
2.7970 0.5657 7.4814
5.7649 12.7717 12.4952
0.8549 6.0197 5.8379
2.6645 3.7606 3.9503
10.4119 5.1031 1.6673
3.3062 6.6326 8.4726
3.6824 10.4943 3.2313
10.0621 9.1404 2.6364
11.2658 5.9135 8.0930
8.9666 9.4220 6.6351
0.8398 11.8005 12.8945
7.3525 8.6849 4.0271
13.4801 10.2850 3.3283
12.2619 14.7918 5.1893
14.9329 7.2469 2.6808
10.7532 5.0831 10.9850
8.7517 1.6148 7.9211
12.7626 7.1670 8.0898
12.9471 6.6998 7.3903
8.7421 12.3579 3.0468
1.4034 11.4179 8.2888
4.5412 13.3823 13.2690
8.1221 14.8265 12.5394
11.2207 4.3692 0.1623
10.1789 11.0267 5.2600
7.1814 8.5076 3.7475
10.4643 8.4376 5.7829
1.6441 8.3092 4.7951
10.8732 2.5880 5.9159
2.9432 6.1241 8.6457
1.6036 0.8220 7.2340
3.0232 7.5765 2.5076
1.5119 8.0627 13.8478
13.0281 7.7329 5.9596
0.9912 4.1454 4.7137
14.1231 1.7580 14.2195
7.1510 6.5107 3.9341
14.4381 2.7912 8.5702
7.6613 2.9927 3.3444
14.7813 11.8620 11.0017
13.5434 1.4783 10.5532
11.2578 3.3805 6.8559
14.6163 4.9015 11.4352
2.4792 10.0077 4.0417
7.6320 5.5857 13.0549
11.1728 7.5623 10.3086
6.4149 12.0642 3.8619
8.1622 8.7846 5.8212
0.6989 2.5494 9.6071
3.1702 11.3722 7.5735
14.2970 12.7174 10.9106
5.5876 0.6527 8.3497
11.1851 13.8160 3.0401
2.3768 14.7071 11.0918
7.2691 11.0772 2.2415
8.1607 10.0295 9.0568
2.4174 2.0518 9.3724
13.2653 2.0717 0.1065
1.2421 11.7782 5.8617
6.8367 14.9104 9.1672
3.9498 10.5144 0.0297
4.2230 10.4795 2.5625
0.4901 7.7736 4.9172
14.5680 1.5242 12.0326
5.8272 12.0813 6.6765
10.0112 4.8993 3.3688
6.7864 12.0031 5.1796
3.4485 6.2380 1.4384
4.7359 8.5926 8.1828
8.9618 4.3503 0.3719
0.3975 5.0850 2.9469
8.5345 3.9804 11.4288
9.0206 9.9350 11.0329
7.8242 6.3986 4.6264
0.9439 11.9164 7.5016
1.4959 13.8994 8.7300
9.3534 6.5798 1.8918
14.9930 2.5226 5.4937
14.9900 1.8315 7.4924
7.1949 3.7146 13.8693
6.2128 0.1738 7.1033
0.0706 10.6275 13.0355
13.5851 0.7190 10.1284
4.5709 7.0896 4.5067
4.5752 1.9911 9.3859
1.3285 14.4629 0.6574
14.4611 2.8733 1.2520
11.1721 7.9633 11.5339
7.6269 9.4581 1.2402
10.1078 7.6867 14.4334
0.0929 1.0245 10.1438
13.8924 6.3257 10.6641
8.4080 5.8635 6.9812
9.0245 0.4333 4.5843
11.0710 3.8718 7.0972
3.8509 5.3642 9.7582
11.1555 14.3524 7.1521
3.0414 5.0539 0.8774
3.5934 8.7682 9.1664
3.6222 2.7239 1.4708
2.6796 7.5212 3.8276
13.2555 8.4727 5.1025
6.4661 0.5999 10.9933
11.2663 5.4545 10.8823
4.0872 3.2925 3.4235
2.9503 9.0879 9.6317
10.9161 1.5565 11.4940
7.1741 5.6772 7.5461
6.4915 3.0013 5.9253
9.6911 10.7283 13.7252
2.9158 13.3650 12.0052
10.6945 14.6925 2.0682
11.6489 13.4911 1.8305
8.9200 14.2051 4.3953
12.8290 13.5948 6.5265
2.1779 3.2332 12.4474
6.3324 4.7351 6.6437
13.9228 3.8097 0.2743
14.2380 4.7537 5.7823
14.6380 4.2285 1.2861
13.3158 3.6580 3.3237
14.0649 3.4402 13.5169
4.9967 4.5487 3.2374
8.1346 8.4020 5.9751
7.6114 4.4715 12.5649
14.0080 11.2961 12.2966
1.0610 3.7552 3.0556
2.3224 14.5266 13.5790
13.7124 8.3675 1.7476
6.4055 0.8434 13.5696
3.9826 4.3221 14.1865
3.0076 13.8389 4.6672
9.9724 1.6006 13.4756
5.9794 5.1757 9.8156
8.9009 3.7646 1.8627
8.6321 0.3701 13.0719
5.1563 2.5438 4.9184
1.7071 4.7496 8.1483
6.1037 5.0132 4.3619
7.2976 11.6804 6.5659
11.5186 7.2400 1.8051
2.5535 12.7146 7.1894
5.7365 7.7347 12.6933
5.6299 5.4239 5.4895
0.1621 8.1726 7.1874
7.4368 6.7739 7.0870
10.7320 2.7921 14.7208
1.7200 12.9951 2.6259
11.9281 3.9078 1.1735
8.1102 12.5847 12.6823
13.1547 14.6956 0.7974
5.6856 1.6037 11.3275
6.7725 11.1611 11.9359
14.9848 10.1528 13.1281
8.2273 1.2102 13.3664
1.3659 1.2865 12.4549
4.2084 9.9360 0.4293
3.1619 10.7352 0.5648
7.6593 14.0624 3.2148
10.5717 11.1577 9.2997
11.4949 10.4727 0.2141
2.8773 8.0462 14.5479
3.2544 8.8029 1.9249
12.7025 6.6772 7.8295
10.0401 2.0479 10.9321
11.9984 12.8935 4.2214
3.5148 2.4743 13.4907
6.5705 5.8474 7.8069
10.4778 4.7713 5.0446
11.4933 11.6503 4.4394
1.1049 13.9210 10.9456
8.9133 6.0698 14.3823
6.4594 3.2482 1.5052
5.2657 9.0115 5.4680
14.2066 9.7472 6.8728
9.9045 9.0263 9.2639
7.4282 7.8454 7.3687
12.4703 2.8781 11.7820
4.4747 12.7316 1.0920
7.2749 6.6439 10.6734
3.0361 3.9367 1.9943
8.4218 8.6482 0.0078
2.6681 2.9945 14.3582
6.8252 8.4831 4.3447
9.8954 12.1946 10.0681
0.0218 6.5925 7.3324
0.6683 11.8493 4.7827
4.4004 9.3788 8.7720
7.4465 12.8895 7.7830
5.1476 0.9658 8.2932
5.4522 8.0489 5.2113
0.1032 0.5670 2.3684
1.4092 12.7711 8.7112
3.5777 10.6602 9.5170
0.9303 11.2690 3.4327
14.9601 2.1282 4.2876
3.7368 12.9329 12.2789
8.6910 2.2348 6.4299
10.5299 0.8686 13.8140
12.6203 13.9755 10.4789
9.2646 14.6259 4.0036
4.5832 1.8477 2.7058
11.9770 1.4285 11.1619
5.9440 13.1642 11.3945
10.3024 12.6751 0.6380
3.9815 5.5289 6.4399
10.0550 13.1879 11.1007
13.9305 10.4396 5.3472
7.6175 11.2280 12.2235
5.5485 5.3304 9.2175
3.4257 13.2445 0.0011
