ply
format ascii 1.0
element vertex 1500
property float x
property float y
property float z
end_header
7.280176 3.092738 7.336423
7.019310 6.826940 2.577583
3.156221 0.299457 1.909982
3.041667 4.166608 3.237593
5.013694 0.079733 2.002212
3.990614 8.795687 4.333840
1.171230 0.275548 5.902206
9.519527 3.776849 2.083762
4.327918 0.306873 7.456325
3.797885 6.357684 2.296545
4.830065 1.632029 9.109685
8.626332 2.967814 0.582330
7.099063 1.608080 1.619217
9.174820 3.706686 9.282034
0.230166 4.566951 5.280516
5.179274 6.923936 7.594768
2.879257 1.663268 1.678986
4.589520 5.659850 1.043927
8.327169 1.402603 4.155392
0.971146 0.058627 1.844891
4.693274 8.706004 0.317110
3.998995 6.340546 6.481239
1.593044 6.564057 5.571527
1.570349 1.279813 0.393834
3.187454 8.583223 3.341546
2.101377 2.155769 8.539351
1.276311 7.411939 9.307519
3.795284 5.455810 9.937028
9.527890 6.224766 4.649163
3.786768 5.316662 3.494061
5.288502 7.664671 0.330501
4.376731 0.591429 6.328804
5.978924 9.304632 8.102918
8.201164 7.958820 9.638375
8.333594 5.402164 5.815754
2.009931 1.099155 7.341419
1.031439 0.157273 0.282135
7.141718 0.820436 6.013107
4.316745 8.196182 4.959252
8.322525 2.856889 2.754200
6.080268 9.758638 3.372483
4.467326 9.937621 7.336284
5.760821 4.614595 8.628950
5.478493 8.878433 7.817070
6.461062 3.585179 2.284495
4.305658 7.322974 7.592222
8.520192 0.387476 4.385230
0.756475 8.401246 7.841670
5.147324 4.228196 4.168881
0.269649 8.008626 8.999241
8.030804 5.871525 8.656888
4.097085 6.833977 7.837886
0.198121 2.885428 9.636913
4.526651 1.716676 8.401390
0.228354 2.777574 6.925426
9.293231 1.471870 9.243609
7.687850 1.168913 0.920573
5.161426 1.646339 0.239325
3.838489 5.235834 8.453245
1.478354 5.439284 6.683040
4.519824 6.888626 0.428402
5.779390 6.761130 5.682528
6.898728 5.479396 6.886379
0.224153 4.207741 7.573093
5.476582 9.251222 1.966730
2.313561 6.316784 0.761277
1.653307 9.265903 7.265711
2.028809 6.994533 4.157653
5.138144 4.038354 0.428640
3.891808 8.379252 9.869351
5.805127 9.937175 8.332233
3.655274 0.560543 8.042923
7.245555 3.082702 7.827203
3.743633 3.489396 4.884836
0.768464 2.625042 4.300717
3.561641 7.424512 6.474035
5.229782 5.602871 0.395413
6.017808 6.721566 0.424614
6.381696 3.290765 8.914791
9.874577 7.033811 7.736532
0.912733 6.318186 0.742602
4.555132 2.137961 7.160697
5.216156 1.958709 4.885723
2.667726 4.281453 7.687410
4.703233 7.971606 9.529198
8.491449 5.881288 0.175245
0.006676 0.678648 2.412540
9.116017 5.634627 5.970689
1.211505 0.694733 2.220584
4.086344 6.190529 8.877098
8.742936 9.102957 0.209283
8.981981 1.163955 1.434321
9.197492 4.795801 4.612225
2.212564 8.465127 7.323033
4.590921 8.654344 3.665899
8.431264 0.139807 6.943619
3.642923 7.064682 1.193670
8.236344 2.218123 8.259808
5.733845 2.582352 8.892996
1.443800 9.745104 5.975011
4.777765 1.808403 1.205193
1.373341 3.851732 5.800492
3.280530 1.952133 5.509443
4.746599 5.016943 0.472400
4.085342 9.766933 9.108478
6.864285 3.291986 3.098067
7.938256 4.682092 5.768933
6.620907 2.624387 4.303974
4.784253 8.076673 2.363063
3.851666 0.621687 4.773816
1.812875 9.341842 6.517715
9.260326 8.851448 0.578051
9.683967 3.274075 0.415252
6.257985 9.524668 9.388070
4.387971 1.972012 0.022891
1.492514 3.171604 8.029791
5.763339 7.843179 8.979631
2.072559 9.688591 3.004058
1.620723 5.491515 8.932046
8.009949 9.430333 4.669497
6.133639 1.376879 1.461978
0.112987 6.688222 1.656765
9.447700 9.706109 3.046964
4.888702 5.386619 4.333185
9.554469 6.120563 9.093548
5.679710 5.813806 1.778385
9.821656 0.836239 6.826757
8.350753 6.091167 6.119798
0.712840 7.726942 0.972379
4.049038 7.683040 7.368470
1.662594 9.848732 4.213801
8.579371 6.471183 0.360819
4.379903 8.166769 2.993355
6.331784 3.330308 9.369644
7.342888 2.259777 1.603236
6.480830 4.752433 1.707887
5.146159 5.015324 4.250735
8.861459 4.676448 4.570224
3.273157 6.221207 9.243658
1.250408 2.696109 6.329984
4.992505 1.618317 4.779713
4.661805 2.942675 6.595020
0.816723 9.126136 7.004192
0.347042 9.367242 6.303015
5.130130 4.704817 0.315760
4.642923 3.867895 7.752972
9.726058 2.152297 4.529874
9.342537 8.875145 1.333888
6.629740 1.031225 6.332874
6.155090 1.219665 1.009144
8.982958 0.994013 4.094427
9.516083 9.483975 0.361654
4.333611 5.834657 8.132666
6.994174 1.676942 1.735743
4.028203 5.437843 3.391369
6.378073 9.124919 8.160111
8.017034 4.896134 9.415859
7.247631 8.705559 7.195760
1.265646 7.255919 1.788268
8.961141 9.696827 1.239142
0.915489 5.245827 6.542603
3.059770 2.193498 9.775310
9.836651 6.002089 3.949151
6.232294 1.062999 3.089867
3.883114 7.909709 7.851967
7.462141 3.934100 9.046088
3.313515 0.365364 3.690114
6.004388 1.325134 2.745634
8.646916 1.940373 6.999916
6.131319 5.212666 3.240102
4.492152 8.996194 7.740776
0.935649 1.527846 0.735649
4.030541 8.802798 2.029694
9.066595 0.702789 3.822752
0.215625 5.040521 8.222729
9.584792 0.408077 2.687471
6.575957 2.480644 9.729202
2.242106 0.395217 4.530161
1.664349 2.782241 2.918188
7.775581 3.115241 1.060192
7.015411 1.935357 5.173910
7.067301 5.190221 8.746882
9.897321 6.661367 6.463541
8.730654 2.095238 6.304417
6.962277 3.355043 2.638990
0.006163 4.806124 0.425704
2.641451 0.055707 4.068458
3.130092 6.085693 0.159188
2.042948 2.433348 3.249090
0.289171 0.724368 1.321043
9.377464 7.108381 2.632279
5.861451 1.741954 1.648856
2.670573 9.067739 8.077236
5.874477 8.359405 2.505135
4.708817 4.952107 3.224504
4.253330 2.518980 4.720093
7.288428 7.977937 3.940897
3.918477 8.350341 1.487722
9.474490 2.535066 8.917056
7.094360 2.304603 5.949722
3.583302 4.972568 1.475805
5.617245 2.044150 7.055958
7.878285 1.381128 4.163661
0.733817 8.546907 1.046638
9.356195 9.718673 0.010507
1.108330 4.641574 3.732550
1.259620 0.503439 9.357768
9.429782 9.951897 8.039519
4.096756 7.080196 3.884006
8.658393 4.769605 4.365058
6.668737 1.180496 5.163559
8.828221 1.315520 3.088245
2.304332 7.248515 5.152938
6.741638 4.072071 7.996852
6.429578 4.093164 5.857552
4.418191 4.642720 8.568019
1.252902 4.050466 6.628956
4.238356 9.023347 9.408624
8.046403 8.864782 8.153072
5.581322 0.863312 0.049039
0.478837 7.044986 5.005064
0.326871 8.897601 6.111632
5.674485 6.725317 8.406211
7.788897 5.515657 5.255095
6.664207 5.197427 3.530989
1.877289 3.790287 9.728359
0.395744 3.634043 9.677120
9.096137 4.518511 5.268253
5.072041 2.194106 1.660288
0.777065 4.130136 6.615258
9.031164 6.079999 2.214237
1.075551 0.945236 2.830176
7.416640 7.681126 1.650141
4.206105 4.645241 7.571860
6.029822 9.058929 9.594351
0.103127 1.532299 4.393387
7.830573 9.596777 9.361691
0.058266 1.275857 3.331930
9.530726 5.696823 5.104047
9.925258 7.373922 2.798449
0.032434 5.678288 5.612015
4.162238 4.358602 1.311944
0.481083 1.653837 0.004751
5.016595 8.870677 9.683697
9.542380 4.287802 0.903318
9.554680 2.902423 8.046400
4.847932 4.117231 1.096099
8.837089 9.176825 0.522260
6.954897 9.055340 6.660847
0.870032 1.969038 1.244973
3.066732 8.418972 7.945916
1.646129 2.938329 1.661607
5.179706 9.423556 1.726873
3.250236 3.967298 9.561532
9.057504 9.675990 0.537080
2.059532 1.982286 9.863896
5.258075 7.303036 8.064097
4.045639 4.600864 7.735239
4.002453 3.373929 3.730190
2.985310 5.245505 6.687003
6.766603 3.013603 3.512879
8.188675 3.906198 4.412873
2.183343 6.301146 1.133581
8.281811 3.887051 0.976058
5.175572 1.358901 6.755910
3.516798 9.412650 6.605424
5.129941 4.958988 3.086473
0.360971 8.168901 9.374149
9.207661 7.223556 2.539780
6.115461 2.062401 2.726215
1.245397 4.250406 1.645940
9.203791 0.893911 6.305312
0.553545 4.956094 4.139397
8.328018 0.573377 5.361948
2.907494 8.227455 6.121754
5.125734 6.342348 0.753103
0.999719 7.095052 9.730218
4.007996 7.383479 3.599324
4.065027 3.785773 9.242823
1.883131 4.563860 5.245141
6.394183 7.588453 2.976622
1.573542 3.320955 3.481677
0.505257 1.358747 8.572382
1.799650 6.003774 4.333191
0.806326 1.196273 6.056170
8.944727 7.153710 8.905939
0.506847 2.892899 2.321747
0.962200 5.454431 5.341025
6.669655 6.894796 3.347346
6.001185 2.528589 4.057489
0.427594 6.978995 7.330457
4.710115 7.701157 2.817203
4.011728 0.135766 6.429017
1.308587 0.721955 6.289985
7.777180 7.464460 7.619615
1.689989 8.205439 5.407533
9.923173 6.099282 4.602837
5.724915 4.423139 6.677316
8.858188 0.343726 4.179830
5.476896 1.040209 5.095519
1.735044 3.031365 8.056990
9.586284 2.245889 7.101353
8.939152 5.451558 6.940450
3.078774 0.064367 8.173480
7.510862 9.515126 8.897607
0.637992 7.500462 5.977090
1.404254 7.114612 6.771704
5.882675 9.550937 2.955809
5.916430 0.656325 4.344630
2.959275 6.936486 0.861045
4.956634 9.824287 0.537234
3.087198 6.912809 3.774100
5.558906 6.147080 9.979788
5.570032 3.123587 7.708519
6.092882 7.056270 9.156501
1.060341 4.530768 9.429004
0.582924 8.137132 0.031615
9.058599 8.931529 7.286077
6.418660 4.911445 7.518937
3.801121 0.326114 3.899379
1.221535 6.332742 4.381775
4.773546 9.092142 8.940136
6.821208 8.874526 8.204566
6.469485 1.230156 8.607672
2.976062 0.162896 3.081850
3.787384 3.503548 8.208868
1.828829 3.957316 6.792665
7.335355 8.451570 4.976281
8.405086 8.746722 4.098926
0.424300 9.997310 0.490944
9.354005 8.646214 4.808341
0.906713 2.008447 3.114267
3.549750 3.353221 7.524084
2.540763 0.091434 0.113287
8.398369 3.594787 2.300395
1.712303 7.915054 5.405028
9.264683 0.276325 2.233521
4.688083 2.361549 2.404237
0.317407 3.528546 0.147652
0.262531 7.370706 1.126490
9.638774 7.085618 4.939236
7.186679 1.414301 7.234808
6.252543 4.247926 1.975637
9.272052 7.246645 4.128500
6.216598 2.786638 5.614360
7.994030 8.580818 8.477330
5.982783 5.796529 2.083534
4.842343 6.178918 8.159774
2.633729 3.746396 9.430657
3.427448 6.855141 8.633076
5.161273 8.315385 0.282702
5.999817 4.612898 0.688774
8.978719 4.659093 1.962990
0.569464 2.744135 2.551902
1.684595 5.199990 4.674496
6.520137 8.599496 9.399500
5.045802 8.746374 1.635849
5.754337 9.563230 1.034391
0.989171 8.039316 9.263103
1.888843 3.982015 1.912066
2.968171 3.128756 8.508866
1.011719 5.187489 7.246591
0.944320 4.563704 2.613236
1.422505 4.803549 8.500385
2.596031 1.983111 0.695328
4.607804 8.233241 3.682581
4.820769 6.657880 2.629521
5.258721 9.015214 6.467901
0.353016 1.679592 9.379752
8.906681 9.918450 0.373674
5.644665 3.706979 2.852924
9.926605 0.002645 9.139605
2.590363 4.676072 9.816347
5.660463 9.598913 0.064390
6.926773 4.303404 6.604871
0.398690 8.703122 8.736791
4.666865 9.376282 3.135314
1.736393 1.964001 4.194021
0.206515 3.990234 4.143523
9.316419 3.115846 8.017812
4.773321 6.662554 7.494770
1.844762 8.146266 1.498592
0.550778 3.611068 8.771708
5.442059 9.875405 8.108441
2.965974 1.670209 0.908786
9.259949 2.806094 7.850374
2.486442 6.473131 3.635144
8.493462 0.867639 7.741447
8.235929 4.458085 4.583275
2.730334 9.614245 4.265127
2.817596 6.924565 3.638744
5.187785 2.562674 8.459741
7.869949 8.607580 7.215342
6.591826 0.848732 0.661956
1.028361 7.499100 2.957617
4.207024 3.677665 5.020670
2.736340 5.487563 4.179369
8.935212 8.365513 2.778299
6.098411 2.348362 3.796720
3.584556 4.865100 5.450239
5.028859 9.544244 1.321014
4.655460 2.292621 6.561689
3.022633 6.696311 8.922966
8.413301 1.736941 5.328196
6.931768 2.182960 3.507029
0.998048 3.585171 1.095773
0.719509 4.781963 7.516058
1.675199 8.272400 2.497918
3.823543 1.515362 2.535044
1.185733 5.692167 7.228627
3.122673 8.674777 0.365498
0.586235 6.595952 1.875956
9.086089 2.698352 2.452535
1.031290 1.884654 4.887678
4.721057 2.334130 8.883925
0.862526 8.400843 5.711350
5.348622 3.377245 7.742068
2.328043 3.245137 7.593061
8.695913 8.949752 9.436785
4.179557 4.463587 7.860709
7.966734 8.872607 9.930879
0.098897 4.480883 8.845125
1.494093 1.928540 0.705766
9.483192 4.014720 6.569487
7.387550 6.995115 5.970847
1.293063 2.382139 5.644546
4.809421 0.455830 0.128615
0.789971 2.120693 6.031298
3.663268 0.202175 6.023430
9.911473 2.170783 0.464092
9.720718 8.474368 2.100285
8.517263 0.171554 5.948162
4.101811 2.345515 7.131530
0.250852 8.382605 5.879995
1.159490 9.228139 3.705009
4.295223 3.467473 2.730250
5.373719 0.943869 1.159417
4.495281 1.554343 0.300147
3.875965 5.029296 1.101405
9.930629 4.678372 5.439348
3.640709 4.036443 5.114153
1.050444 2.417121 9.670684
4.185494 2.348274 7.766291
7.630516 5.630292 6.496684
4.307251 1.179768 5.036188
4.853426 2.468680 1.282509
9.482091 5.112134 7.587728
9.934210 7.140381 3.954561
5.007421 3.081380 6.556864
7.500435 6.056273 3.816961
5.002304 2.003785 0.641733
0.675516 2.784005 7.086382
9.777109 3.084890 2.636367
0.444269 6.784856 5.814673
5.597519 8.873755 5.207356
9.542764 6.690967 6.579207
2.569203 3.850542 6.994594
5.963177 3.600907 1.186000
2.676135 9.276670 2.157661
3.811094 3.348311 1.660865
9.434598 1.631639 0.032521
0.665907 1.946108 0.788566
3.990605 5.367930 7.519764
1.973826 0.872262 3.357163
6.259189 7.518752 3.614989
4.788566 0.047422 0.191074
4.415392 4.894998 5.438245
0.735751 6.793235 7.848140
3.669543 5.525351 0.897377
5.050295 4.380870 6.084287
2.872461 5.156705 7.825836
6.516090 9.650236 6.496534
9.568235 7.876571 3.788581
3.796911 4.803896 6.633681
3.153411 0.105711 9.470542
0.082257 2.878687 1.043135
9.541777 2.482393 3.287672
6.753934 6.513145 0.828984
7.106585 5.362424 2.379947
1.987602 5.230566 6.665456
8.337562 0.458270 0.628477
2.936997 5.342101 3.789163
8.581262 6.519090 2.856564
1.463949 0.437039 9.595483
6.883810 7.659145 4.535750
4.109551 6.071510 6.592108
6.740693 8.915644 8.345307
0.901909 7.785202 4.962464
4.433151 1.587962 1.324411
3.817383 1.585787 6.436159
4.281886 7.754447 3.911971
3.957386 2.121052 0.228208
3.939346 9.387361 6.774280
6.608938 8.173040 1.620113
2.542382 5.530787 9.187506
9.960591 8.770569 1.522020
0.957995 0.236585 3.126017
5.257613 0.820124 3.891251
5.827556 3.049492 2.309718
0.753381 8.492468 4.205387
9.878706 8.649187 0.984237
7.086979 0.193055 0.325039
4.438523 3.694268 3.820280
5.969971 8.821798 0.613623
7.115453 9.351483 5.894568
9.557267 7.564592 2.260832
5.330113 7.974073 8.503174
4.896624 4.976775 8.582902
3.111198 6.395836 5.338813
4.058134 3.773690 0.476606
5.487533 7.467870 7.007567
7.005376 1.634141 7.498352
4.896270 4.750139 0.657127
2.854549 5.956494 3.291155
8.588560 0.925477 2.898346
6.065727 9.227122 8.399093
8.369083 1.158574 0.573391
4.265169 3.885965 6.373575
4.971008 7.867525 6.596922
7.146967 7.519732 7.306629
3.622102 3.590735 1.052555
4.184458 7.256060 9.524205
8.779337 5.265655 6.015024
4.869410 0.119473 6.897193
3.147487 8.629277 8.106973
7.419438 4.236691 1.263806
2.848265 6.393440 5.673095
1.004837 5.412480 6.738935
2.590589 1.835737 2.113990
6.458309 5.221722 5.486219
1.532005 3.853275 6.980466
8.589220 0.666629 9.251256
9.312469 8.729478 5.040517
7.945771 4.730335 6.802826
0.277761 7.845667 7.342716
0.261940 0.374456 7.976138
3.304898 9.745442 1.344052
9.673525 1.605527 4.082766
6.879032 8.826708 9.683840
1.771710 4.146145 7.358487
6.435130 6.636717 6.698210
5.967859 1.595679 8.330941
7.881216 3.298881 8.424153
2.218111 8.387996 5.018288
2.268181 5.359051 7.945058
6.612656 7.018010 4.850805
1.101333 7.047092 4.984514
5.789068 1.093748 4.924652
5.890527 4.773546 6.294006
4.525784 4.982580 7.623514
6.930499 6.464969 3.602156
0.028985 4.731939 7.361402
7.126664 0.743568 0.793960
0.013424 7.252462 0.493044
2.990093 3.995486 1.198205
7.244654 3.924204 4.830309
6.466507 6.505707 8.201073
8.118534 0.030218 1.527434
2.873589 5.592957 5.813883
6.064609 0.049737 7.726760
5.453575 6.979472 6.523741
1.584160 3.758350 0.422810
8.497453 6.661019 2.458526
9.464568 3.898423 5.780058
7.123091 8.264296 3.453618
6.061785 9.537612 4.789681
8.310679 7.024296 2.368820
7.581221 0.142124 8.231254
2.897157 6.828121 3.893279
6.178660 1.995977 3.726570
0.662051 7.958593 2.035507
2.775926 4.698631 4.322414
7.532384 4.281634 6.736628
0.500430 7.732860 7.050458
6.550304 3.353961 5.283893
3.022048 0.409080 5.271292
9.503868 6.385952 1.384421
4.235852 5.279843 3.268423
3.791281 8.490421 7.358999
2.649677 1.744608 3.641509
7.667152 5.996851 7.023251
9.785241 1.095539 0.963876
2.656462 8.089647 4.640561
2.708737 8.354903 0.486286
2.816675 4.627401 3.754322
1.038895 5.347671 8.675652
2.332313 0.962309 2.976763
6.004829 6.269877 7.005434
8.701677 8.025073 5.769481
3.791139 5.653666 7.289433
3.875604 7.186200 0.058502
2.791770 6.175010 0.217480
5.458462 7.709211 0.611080
5.868794 3.095664 4.075080
3.908307 2.466125 9.002133
9.601443 3.211952 5.640832
1.345117 1.661834 6.333135
6.589578 8.661327 1.886558
6.088922 2.802815 4.392329
9.843161 6.390653 6.183116
0.081143 1.746428 7.901668
6.402922 3.058804 2.664014
8.117523 9.036354 5.313819
2.065077 6.947914 5.722602
3.921271 5.304248 7.109464
0.438980 6.614234 4.662897
7.833730 5.578914 5.218531
9.740715 7.309181 1.212059
8.884295 4.653081 1.243524
2.621042 7.234360 4.707927
4.442570 1.357223 4.707739
4.082379 2.711239 8.631748
3.978472 9.760419 0.506959
4.216747 1.186539 1.719683
8.500781 7.337805 2.940895
3.093101 5.965699 0.153772
6.073289 6.570947 3.368949
0.549809 2.070256 4.476295
4.607816 3.562836 1.433931
9.655576 9.740576 2.734150
0.244795 4.075879 1.933199
1.007349 3.002828 2.487536
4.811061 2.035049 2.170484
7.190918 4.148032 0.895183
3.219747 0.458834 8.090671
2.143303 0.801946 9.640663
5.592657 4.389456 3.433948
0.525491 5.404324 1.832094
0.027498 7.740058 2.782092
8.380714 2.547977 5.516101
2.287474 9.027627 9.142231
2.617419 8.818734 5.082198
5.401203 7.374571 1.550979
9.111989 6.413847 8.230509
0.542057 9.046397 9.952813
5.953156 4.280131 6.934110
2.929178 3.049715 5.010677
5.142726 2.338363 8.489086
8.305369 3.772269 9.498373
2.455584 6.513411 5.723430
9.910557 2.240516 7.892900
8.563519 1.310041 5.860083
3.495324 8.894292 3.025162
0.709683 9.382692 5.042223
4.724063 6.891445 0.732813
1.318740 0.358530 8.404481
5.217182 4.267598 7.061500
1.635348 6.277220 6.662371
8.255826 2.880229 6.680942
2.854277 0.733561 8.693865
0.134195 2.741188 4.683169
8.883353 9.365024 3.062333
5.789307 6.366849 6.725118
1.541274 1.404877 2.023950
0.434012 8.112698 0.704248
2.361596 2.340779 0.471681
8.516647 7.911535 9.761639
1.216765 7.785317 0.049081
9.491006 7.839723 1.797860
5.065715 2.297353 1.578264
5.672471 1.066002 0.221239
1.210643 9.285984 5.477533
2.884491 4.691528 8.226458
5.528140 1.581063 2.881165
9.509614 8.080741 1.220338
4.968200 5.201412 2.171702
1.208898 2.066250 3.744570
7.844486 9.050000 5.327983
9.488147 9.072947 2.856579
6.313342 1.830570 4.047358
1.173344 9.239046 0.381821
4.805466 5.051224 5.236877
9.259907 9.988918 9.873338
9.877332 2.927266 0.122724
5.165487 5.930778 0.536950
7.023062 2.566900 9.990926
5.172142 9.628414 0.299906
5.802506 7.591351 3.575368
7.011394 2.703186 1.072738
4.526765 4.276914 3.506582
2.317959 1.100553 5.043642
9.889210 0.380137 9.267648
6.024415 0.486909 7.754217
3.170348 2.703944 5.133548
0.485886 3.747805 2.516125
0.038158 2.858116 0.951190
2.543551 9.695017 7.705622
9.916972 1.927465 2.166677
8.374931 8.814464 3.984593
3.633407 9.038939 8.355787
5.247530 1.281833 7.830177
5.171791 3.246293 6.603594
6.736512 6.250587 4.982599
3.618842 5.871108 7.375502
8.382361 9.760800 7.564110
4.963713 5.788152 7.000376
0.480703 4.919672 3.035796
8.629959 5.709715 5.192605
3.183033 2.595058 1.370598
0.252290 7.803946 3.876577
8.088060 0.153933 8.881980
3.800709 3.847281 7.310981
2.432797 1.897463 3.759341
7.412930 5.510908 8.772554
8.040690 7.304825 9.000359
7.050654 6.070441 6.080598
3.062217 4.286401 5.274274
5.142087 5.666377 6.983453
2.421955 2.817760 4.673596
6.296588 6.730833 0.627006
7.812167 0.816124 5.514855
6.054770 2.439511 3.531309
2.812988 9.470074 1.496811
8.976980 6.975473 1.827879
5.160858 0.161611 0.376138
1.969884 5.934524 7.405231
5.963427 9.894320 0.867813
0.272060 0.212334 8.922056
3.893703 5.621175 1.582207
0.064075 8.093822 9.895242
0.322921 7.356967 3.859575
5.019434 8.403722 5.471759
0.730311 0.797948 4.744022
2.468362 6.473934 6.555420
3.388972 5.519526 4.661600
5.396667 4.941641 4.490870
7.682522 6.641775 0.539063
4.921106 2.091741 1.603631
3.716651 3.105939 0.635634
4.720066 2.697334 3.580058
0.725446 8.433568 3.012796
5.114949 7.629821 4.219602
3.741342 4.579533 5.791900
3.832251 9.506816 5.134858
6.912560 6.650775 0.021874
9.977926 7.888433 9.421993
3.327038 4.953495 5.032947
8.598332 9.182180 7.698695
4.370784 2.885637 2.993331
1.864134 2.546363 9.192757
7.759837 4.183376 9.437480
9.903001 0.370421 6.120694
1.378775 1.288360 8.170569
2.409700 6.384392 3.642477
6.939293 0.623108 6.230289
2.360520 1.247808 4.359472
8.980096 7.121182 3.991511
6.425094 7.604497 2.986684
1.492336 7.329023 8.803817
3.430693 4.424690 0.567199
5.527659 7.273849 4.171836
2.281585 2.557959 1.769277
4.681880 2.676792 8.284825
1.566357 7.352253 8.554870
6.565173 4.378188 3.961274
7.531110 8.641828 4.852714
1.825319 6.280229 1.840103
0.725847 1.390511 0.616241
1.922064 5.923327 4.009874
1.489603 7.776431 5.932033
8.442106 2.221254 1.923707
8.060101 2.144661 6.262582
6.400172 0.020078 6.980198
7.288057 8.742792 4.072375
3.383771 7.263711 7.822672
8.835005 6.931670 4.786736
1.050470 4.246636 8.370111
0.607618 8.640062 8.050475
8.186440 3.040216 0.680133
7.112089 9.038951 8.034220
3.567077 9.180254 2.767461
9.500165 4.446183 9.808466
8.724874 3.990840 9.801896
5.510025 3.935174 2.014221
4.196461 7.134495 5.742168
7.096425 0.446299 6.477702
4.969632 9.510397 1.156815
0.798209 4.932839 1.578940
1.263617 5.350260 1.745266
8.668239 5.030141 5.640711
2.149829 6.657033 4.447161
5.296272 9.478022 7.036267
2.195969 9.105739 5.260578
9.861841 4.310658 1.107511
6.565738 2.000710 3.272586
1.193068 4.038630 4.926391
1.806210 7.511302 9.834004
0.921906 0.366775 3.682014
8.597438 0.635027 0.420664
0.833847 0.514611 5.939094
9.749543 1.185150 1.431986
5.830236 8.281644 9.844966
7.134356 7.470075 4.372536
6.441725 2.804730 5.440787
2.732068 8.827920 2.214417
6.488185 4.264181 6.098972
3.340596 3.479181 4.221501
5.618671 1.758209 8.238923
6.075151 5.045399 0.956109
6.090847 7.915210 1.924260
6.130334 7.960408 5.495260
4.302863 0.739446 3.206272
0.113378 8.159672 0.652310
1.391945 6.252835 4.817762
9.808927 9.260170 4.243301
9.968427 2.135039 4.957709
3.215277 9.309865 9.289555
5.078191 4.859274 1.263461
3.374353 9.231151 0.520913
3.023780 7.187689 7.351060
2.653015 7.124414 4.380587
8.023007 7.107929 2.694786
0.798382 3.059411 5.964613
8.669055 5.340592 1.448336
4.885702 2.747048 9.412894
6.651643 3.641133 8.550319
1.956240 5.825166 2.442575
4.670764 0.944224 8.722368
8.093554 1.631466 4.181852
3.643271 1.495825 1.404185
8.712236 4.207638 1.116605
4.382056 7.212684 8.563432
6.837795 0.413297 7.310386
8.916766 6.314515 4.875302
9.060811 5.438425 5.085870
7.532113 4.649441 7.579488
7.579559 7.642472 6.630300
6.402207 4.811449 0.864240
0.092310 0.905231 0.398812
8.085004 4.013957 1.188016
8.848415 2.358936 6.892537
9.509654 9.226524 5.569672
5.910240 8.021807 5.346376
8.110592 8.049529 5.857980
0.760360 8.500264 1.352648
3.443955 2.420418 8.898455
9.857945 7.491020 7.815933
2.651741 4.370126 1.450274
0.607800 0.825830 2.322886
1.626811 7.063050 5.658734
2.045092 4.745574 8.061763
8.305708 2.491659 0.018098
7.132186 6.433676 4.785905
5.239648 7.939578 4.445973
1.891999 3.189844 3.133070
7.907421 2.546521 6.063542
4.926208 5.889485 5.530696
6.620045 3.427923 3.222283
2.543835 8.183219 6.759208
0.665945 6.506979 3.478902
9.927903 6.454501 2.898091
1.849680 2.316097 3.415797
8.258424 9.964676 4.903296
8.023280 8.091504 6.197144
8.925660 3.533292 0.534863
4.186894 9.412587 9.059135
4.699533 2.169150 7.471254
8.185415 2.770057 2.119435
1.558852 5.847255 1.937187
5.149197 0.059267 5.928161
5.654308 0.373507 6.122624
0.847884 2.261138 8.218897
2.382275 5.281211 6.742716
7.469595 0.939365 0.955263
4.266954 4.513319 8.876725
2.176661 6.002160 5.987172
6.057537 6.240441 2.353365
3.786896 5.811447 8.587864
4.134159 7.320450 0.298785
1.283174 0.086888 9.117912
6.170641 0.950783 3.200812
3.583536 5.916198 1.478918
1.969804 7.211732 2.924896
5.854165 1.965930 9.412406
1.621545 3.055754 8.421822
9.401563 2.077607 6.775457
5.322048 2.866392 8.108076
4.976570 5.837060 8.743073
2.320909 2.673517 4.742631
2.221770 9.009984 3.289187
9.231784 3.828709 0.896757
3.195674 8.426502 2.405403
2.263432 8.921924 0.202679
6.400766 0.729689 6.266863
0.129433 1.732077 1.551010
4.534438 4.584387 9.331143
4.184160 4.434217 8.848791
1.790645 9.529162 4.251669
7.080305 4.343415 4.231649
9.053478 1.456960 3.844114
7.078002 8.792651 0.105142
3.921278 3.457751 8.471997
1.592218 8.711799 1.661809
4.535279 1.197690 4.891549
7.521114 7.383803 8.843618
0.062899 3.433282 5.277199
7.001578 1.497766 3.534862
9.759246 9.168940 3.630346
9.777146 7.580933 4.989623
7.007856 7.097037 8.105157
2.280546 6.363853 7.780903
9.994371 5.165886 4.443812
5.362540 4.973900 5.430376
0.376552 7.815771 9.272996
9.272628 2.588340 6.091803
1.558347 7.098385 5.512415
3.210550 1.328830 6.320860
9.974682 4.356563 5.069528
1.417646 3.401157 5.782586
0.942905 2.453834 4.536843
4.680280 1.011569 6.615404
7.510352 0.906942 3.113360
4.906845 2.965934 5.276230
1.694992 2.104978 9.084221
8.071458 8.419711 1.365956
5.313289 2.116553 2.820833
3.869182 4.483223 6.897470
1.834491 3.376968 5.343177
9.389353 5.063333 7.041770
6.929955 1.308221 7.550905
9.161853 0.738117 0.375444
2.735128 6.893136 7.440076
0.847083 2.885181 6.788186
3.583405 2.210718 7.360270
1.625089 0.338375 6.949203
2.514300 9.430480 4.975408
0.371418 1.994847 1.662936
4.558601 6.135894 7.255850
6.569699 2.831979 9.656915
1.497725 1.578334 5.586509
8.932945 8.881061 3.180973
3.566980 3.580078 3.013834
5.719166 6.393334 1.557676
1.680553 5.405482 1.185193
0.791902 0.663029 4.739927
4.831145 6.670220 1.024963
9.185974 8.873538 1.234968
4.865649 0.378492 7.484103
6.473835 7.135731 9.099459
2.797781 5.223256 3.055032
0.291279 0.824629 9.000064
3.005525 9.417937 6.855692
4.277052 5.330768 8.613271
9.695831 8.274428 2.792971
0.612830 8.790483 8.102962
0.171796 1.907349 1.927584
7.479118 5.175394 6.583303
6.908619 4.474754 1.494781
9.966257 0.947079 0.200989
6.168663 4.117803 0.796170
1.951136 3.216252 7.866524
8.216640 8.056092 5.701377
3.540730 2.784435 2.027829
8.247103 7.814080 0.317328
0.598892 3.322283 9.188723
0.659755 9.321407 6.291693
9.269631 3.151743 7.483262
5.778433 9.246617 6.595423
6.254731 9.183656 4.765170
1.088703 9.682315 8.592599
2.651784 3.826631 4.669552
4.318892 6.822096 7.186519
9.268356 6.957475 2.865654
5.013013 5.605717 4.952981
5.683312 0.498712 6.052425
1.099849 6.010480 8.399808
8.550158 3.108371 0.242038
0.471158 5.456102 1.104554
9.319289 5.345256 1.521317
6.885685 5.653936 3.915121
3.497792 3.207226 9.989447
2.454512 5.045866 5.917306
9.464780 2.647246 3.682650
9.253060 7.992662 9.352740
6.505019 3.951291 4.094446
2.182993 9.483915 6.384867
3.193683 9.849964 7.171363
1.554398 8.176055 4.260064
0.193952 0.942931 1.122866
4.436217 7.908016 7.722363
9.297382 1.865678 9.804322
9.435160 2.142796 8.770314
7.118494 8.295111 7.158089
5.116071 1.740583 1.842233
6.698682 8.127151 9.743121
6.216453 9.936853 5.893911
0.508711 2.853500 3.281628
4.219555 6.698819 3.274636
4.182738 4.507866 7.186144
7.408224 5.399015 6.421972
5.957517 3.438202 2.826646
2.708293 9.183527 5.136251
0.872250 8.556689 0.914687
2.652080 5.414923 1.431880
6.321387 9.982300 3.371422
9.087542 6.853464 0.654097
0.570941 1.608954 8.538806
5.126145 2.072093 5.291735
7.348622 5.510361 0.288456
3.055698 6.161523 9.268453
1.018512 3.634267 4.222629
8.045084 0.874733 4.505210
1.048211 2.180433 5.414303
4.147453 9.644201 4.790411
4.935441 3.089102 3.453578
7.512143 0.277667 0.260204
9.132010 9.649479 6.624262
3.640010 5.836824 5.923665
5.245341 6.171294 4.309349
6.104102 2.483121 9.287019
0.253549 1.894788 2.736051
4.847021 6.492874 9.324926
7.325261 4.336176 5.675462
1.438122 4.795513 7.335331
4.418388 5.286931 5.997502
0.471444 0.967397 4.592844
9.507061 3.863719 1.452480
7.662007 3.455920 3.257825
2.172495 4.092695 2.560966
2.913138 6.974610 9.720547
4.390678 6.767614 5.840337
1.735540 4.285919 2.136914
2.974709 0.375358 4.678063
5.693980 0.623467 2.923569
9.498944 8.226686 1.417482
2.364875 1.896696 9.509835
2.120390 3.199031 1.957094
5.372426 7.431582 2.287238
8.831247 6.275761 1.511842
8.118978 4.310217 5.439575
0.856226 9.702328 3.265489
7.229155 0.777991 0.438751
6.712486 7.100475 5.146949
9.598559 4.257180 1.497876
0.040636 1.477631 1.211625
1.599729 3.405629 7.036930
5.938331 1.407134 2.735662
8.188922 2.984851 9.478512
7.710456 1.267851 5.088465
8.504988 2.806628 7.901533
9.693774 8.765249 1.671719
1.067344 9.497797 2.975227
3.388863 9.448417 4.156194
7.130973 7.206466 7.781673
7.818331 9.732680 4.129402
7.841338 9.644877 2.104186
3.274829 7.148102 3.712950
4.587698 0.524713 2.762827
2.722785 0.897280 5.032633
0.022969 9.366755 0.647803
1.922882 4.637742 6.265558
4.508594 8.423363 4.132736
5.607884 3.430971 2.387301
9.139351 8.628945 0.815780
0.601122 4.577102 9.192444
1.072864 4.083026 5.779356
6.927060 8.116532 5.369001
3.932888 9.271544 2.115838
7.158551 3.323643 3.602303
2.820465 5.991838 7.584410
2.518664 9.710122 9.728849
9.946735 3.199355 3.171001
9.263447 6.093686 2.294099
8.062701 9.272150 3.453713
8.919147 4.755592 4.121106
7.593998 1.942719 5.951297
8.697104 9.298971 0.095313
1.281555 3.236881 6.587991
6.370299 3.645423 6.741904
8.407607 8.834429 7.725345
1.322441 3.671934 0.344430
8.552757 4.259334 6.551694
5.696124 1.429464 3.607277
0.579456 4.912146 1.412268
3.253879 7.131937 9.490779
7.327542 5.736792 4.770710
3.808681 6.677825 1.336629
2.075223 3.315666 0.476450
9.003389 5.876287 8.212785
8.936298 9.716129 3.468806
6.826233 2.266197 1.818936
8.408957 4.655881 4.911235
9.065753 8.853313 6.770594
1.622035 1.588486 1.364380
5.098609 1.086952 4.876348
9.905760 6.466300 8.160298
5.861480 1.501525 1.784598
8.109066 4.711141 9.706806
4.804442 5.786709 1.007726
4.432246 0.299339 2.716507
0.119313 9.893339 6.288158
6.391270 7.130645 8.524617
5.834157 1.007432 2.146932
2.136374 5.151316 1.256517
7.165337 7.368757 9.378607
9.570088 6.385532 4.151150
9.089881 7.243009 9.595508
4.067977 6.696922 4.744648
3.487590 8.459562 6.497160
1.873833 6.605881 4.996645
1.676429 6.561364 7.917639
6.082200 8.896708 2.563819
9.821142 4.734947 5.479198
5.840726 0.257647 5.060047
0.976566 7.212665 9.932749
3.110437 2.360201 8.593797
0.253301 1.310100 3.861907
8.501589 7.855707 7.576523
1.851237 6.731105 0.258826
6.718285 0.016383 6.969770
4.477910 5.610901 0.000356
9.487704 5.185102 9.045065
0.744349 1.519958 2.457307
8.099676 2.535491 8.124706
7.820165 3.842605 9.883390
7.095942 4.037733 8.819071
0.044281 9.918994 9.881069
3.894650 3.805976 4.073749
8.210171 0.510860 4.304292
6.625202 9.220366 0.187383
2.378630 9.183590 1.389169
4.279490 3.351465 2.422632
7.861448 4.184504 3.605828
2.814991 4.387984 1.905989
0.157542 9.381952 6.701867
9.632561 4.665813 5.453943
3.364091 7.905434 6.352226
8.430585 7.862482 0.316768
9.467517 5.626064 5.011536
2.666994 4.360812 5.078075
3.813616 9.987375 7.420680
5.899528 5.777476 1.033227
3.353059 6.351135 8.813981
2.379032 0.952442 6.462176
0.536467 1.452640 4.167395
9.089104 4.496299 4.463694
1.707886 6.186038 4.066095
5.022470 4.048582 5.630585
2.610870 6.880306 2.529029
6.899782 1.036693 7.433070
4.810186 5.216174 1.606497
5.920979 0.244571 4.418122
1.903971 4.935040 7.329668
7.080720 7.397884 3.447092
6.889217 6.392621 0.461635
8.539392 3.841063 1.205445
4.309813 3.574882 3.123221
8.925223 9.839741 5.282667
9.545566 8.275214 3.761038
5.385324 8.047466 3.623320
4.977735 4.398897 9.636330
7.533335 1.999605 4.070896
0.991658 1.164364 6.230347
0.563470 4.108637 3.185448
5.025943 9.282129 0.160184
7.122759 2.506046 5.384154
5.387872 2.711835 1.053146
6.915648 8.942077 8.716885
7.440842 3.135488 6.640988
4.697547 7.042589 7.624187
1.290543 7.624877 0.830731
2.677345 6.086574 1.885574
5.824124 4.339684 2.154330
8.531705 7.641538 0.759797
8.901917 1.392500 0.592162
0.426232 3.580031 8.396991
0.846525 7.070475 1.196307
6.870571 4.394967 5.892314
1.452274 8.484737 0.640103
9.846562 2.427983 3.512602
6.988880 0.596810 1.056388
9.137693 5.900531 5.515617
8.121123 8.724725 3.832666
2.273344 0.646013 2.883123
0.025199 6.094524 5.998768
5.984971 1.390143 9.729297
4.839609 0.463935 2.162470
2.895385 1.035385 4.548871
0.200695 2.411070 8.187352
4.622949 8.454627 9.187925
3.327967 7.517458 1.549398
7.704473 3.883086 3.184108
9.428061 7.904719 4.670163
6.012551 6.328734 9.672265
5.422304 4.477298 8.623467
3.761858 5.287382 2.465051
2.703027 1.805403 0.760899
1.399117 4.803931 2.646127
8.967816 9.179445 4.413785
3.148924 4.588575 2.441635
9.618335 7.560970 9.940202
6.819277 8.629553 5.827729
9.254353 5.193018 9.121248
7.079721 3.181903 6.053586
4.565927 5.980138 0.484853
8.725476 8.481070 5.244840
1.512344 7.836400 3.704103
9.105369 8.573460 6.739924
2.589984 7.718504 9.280772
5.015363 9.430405 7.578486
2.529777 3.961887 8.275847
1.760047 4.918363 7.555495
1.870008 2.827553 3.877263
1.873147 3.141264 9.874107
1.865596 6.979326 7.714993
4.978058 3.783066 1.370600
1.284144 8.214950 4.875714
2.986471 0.266902 0.439678
9.597993 2.412398 7.843401
9.107891 0.047369 1.257269
6.442227 1.381361 8.365043
3.384357 4.027569 6.937005
5.005981 2.080477 3.727614
9.700396 7.292798 9.969528
9.269701 4.276288 6.722631
9.904043 1.173010 9.703271
1.029969 7.007955 0.058346
2.261898 7.143580 2.256566
5.257536 7.035233 7.128257
7.395852 4.923878 8.272945
4.646521 2.579414 8.276204
6.581083 5.948414 2.301460
8.821486 2.819869 0.633941
4.446256 2.289036 5.827142
9.630268 1.879767 0.463804
4.051784 2.685022 3.036105
6.353234 2.030436 2.083654
5.141836 4.501799 0.551385
0.615009 3.933034 4.192360
9.975532 3.249990 5.379761
8.911586 7.498505 1.031805
9.188535 6.106060 2.289172
0.617836 8.850592 7.941283
3.556616 8.213512 8.215830
2.007254 7.283045 6.933372
8.363107 8.535688 0.557586
5.811210 1.813247 4.096123
1.561094 6.303905 5.992116
9.436335 9.851878 5.870632
8.308248 3.894521 7.708690
2.141804 7.892219 2.333647
0.182913 8.738646 7.473320
3.029485 6.405468 9.978872
8.075365 7.372264 8.784740
8.246530 9.260866 2.800022
2.929828 0.551512 5.762520
0.825941 5.262981 1.134750
3.897924 3.873299 1.073218
9.549968 9.807892 3.315451
3.416604 6.926459 7.765859
0.196062 1.536319 4.903918
9.634608 6.152047 1.608324
1.460405 7.356506 8.025393
5.366084 2.677844 9.968342
0.867365 2.286427 8.863522
3.976204 4.282151 1.513321
5.731810 7.735855 5.769689
7.562776 2.056363 0.339697
2.064722 7.650587 8.085617
2.859427 1.633460 9.477144
2.824282 5.123002 4.688658
8.857276 1.775196 4.180488
1.123261 7.346715 5.382152
1.772520 6.793364 7.060680
8.253522 8.952682 4.659070
2.780321 7.159047 3.190390
1.101914 6.038017 0.458672
0.601656 1.836281 0.051378
0.190554 5.108668 5.743226
0.672405 9.025201 4.239310
3.190103 7.448961 8.690783
0.693098 2.446272 8.804714
3.702716 8.952791 5.398432
2.863438 6.704597 7.962685
7.498680 4.729418 8.396954
6.374339 3.420562 7.443248
9.739138 5.374442 9.030971
8.489963 6.131749 2.232700
8.234982 8.636239 2.196438
0.892982 4.945608 9.728125
7.625918 0.185608 2.071891
6.712699 7.095290 7.074867
1.369655 6.403838 9.007973
7.541905 3.179816 6.784751
8.020588 5.297913 2.798207
1.326373 5.408265 3.703282
1.512622 1.107608 9.221065
6.875233 9.657496 7.718337
3.236186 4.256122 7.923117
4.801273 3.933135 6.461140
8.654472 3.298708 0.980091
1.838948 4.081003 8.814425
2.361221 7.149689 4.941178
0.319211 6.448674 3.377536
1.150245 9.665032 7.778867
1.125493 7.965046 7.603265
4.580700 2.243233 7.253013
4.383513 5.588041 5.063036
5.547724 0.177965 1.151549
6.743705 9.095332 5.890354
3.092758 7.026122 2.696067
5.843444 9.951515 0.135882
8.931154 0.570186 8.403052
5.522427 3.530873 3.870978
3.851837 4.976313 5.557599
2.362344 9.282600 1.935968
1.189795 7.459502 6.438814
5.102257 2.743091 9.003689
8.311822 8.752702 4.869179
5.783785 8.402723 3.599667
3.590647 6.454893 8.153549
6.032258 4.757854 2.613361
2.406906 2.251186 4.377744
4.262853 8.540265 7.466278
6.197532 4.443241 3.192418
4.632704 5.494897 3.021900
9.256898 3.144995 8.143730
4.431113 4.013027 2.396055
2.949884 2.205106 8.343710
4.285151 0.276867 1.129890
1.094123 9.343234 6.307117
3.728266 1.959057 1.141659
9.571395 7.890499 9.632476
9.589120 4.574716 5.323253
0.730500 6.797104 3.775860
9.241678 6.481993 6.662647
0.769976 8.381285 9.627414
3.416341 2.252855 0.342909
3.763279 0.556773 5.524201
4.272285 7.213280 2.094222
9.877599 9.614358 8.980754
0.441644 0.172411 5.755345
0.372235 7.143738 5.224626
9.451913 4.619677 6.374783
9.494928 2.099069 4.998623
0.235473 7.823646 9.405489
2.638758 7.823532 7.849013
7.693308 7.959132 6.610445
3.860377 0.675929 1.956893
2.727411 7.671157 0.913126
4.861809 5.116929 4.723453
4.483803 7.915732 1.853663
7.368670 8.038025 1.072208
4.425056 2.361439 6.636210
1.093164 9.298700 4.588772
8.959535 1.206452 8.225051
5.527365 1.914840 7.724750
3.361387 7.663853 9.123910
5.343703 6.843030 8.008897
9.539785 0.916001 0.663455
2.848275 9.561300 7.743837
4.478989 2.434046 7.447049
1.798809 2.522955 3.864339
2.678991 8.924689 9.502828
3.051720 4.380804 1.863287
2.532944 8.947979 8.124710
1.475129 7.079032 3.710276
2.976109 6.793479 3.327283
1.954114 1.049333 1.985673
9.151105 0.150558 2.041770
6.218585 4.424979 4.976178
6.298653 3.342635 9.737576
7.167315 8.967983 4.772115
0.494042 9.742207 7.074072
2.997843 7.333074 9.226568
8.039664 6.112452 6.810705
0.702716 0.410816 8.142460
2.014466 4.315029 8.472696
3.824776 0.754291 6.267128
4.767766 1.417025 1.789905
6.463264 0.022362 9.203488
8.865288 7.100504 5.459639
0.772307 2.463154 9.378235
5.528879 0.711415 0.116861
5.539458 1.653214 0.849955
9.694346 2.017865 3.813907
6.753099 0.584499 4.784997
3.089755 7.471003 0.601253
3.784264 5.972350 9.447890
7.330581 8.884690 0.217373
5.795430 8.567489 4.806501
7.824677 0.163572 9.624688
2.230565 4.398716 0.057606
7.415083 2.338455 1.637894
5.847432 7.258642 8.260585
4.426419 1.475495 6.723944
6.534433 4.825370 6.595492
8.754877 3.752914 2.254469
5.996235 4.380405 8.802440
5.427764 7.133516 4.420722
7.311672 9.532377 1.798839
5.806952 3.706328 6.538466
7.727277 5.480363 8.746097
8.753274 1.178047 8.367930
4.865353 4.693505 2.766639
8.637333 9.888359 2.869679
9.319882 2.784331 0.079956
9.681426 0.992537 1.216943
1.664879 7.657117 1.455546
4.499648 8.290686 6.805080
2.810743 2.619880 5.209763
4.805782 6.708400 4.979374
9.648452 9.951708 8.659499
8.444460 7.048655 8.469957
4.341008 3.009417 5.938690
6.526599 1.539014 4.970181
3.809992 6.936394 4.292859
6.507929 3.900354 9.480251
8.654758 3.834700 9.989394
8.782047 8.997186 4.153062
0.390790 4.835852 7.252410
7.281454 8.852103 9.032779
3.441291 5.178597 7.739411
7.789310 0.495457 1.771925
1.708615 5.729005 5.062863
7.141113 8.341550 1.326188
7.216665 8.265268 3.191423
1.287525 3.556307 8.986160
9.561040 1.372378 0.373838
7.669925 8.945586 6.864853
0.965076 6.158159 4.014085
7.046997 0.292893 0.725088
6.508357 2.468197 4.504502
3.420860 3.314718 5.233482
1.146830 0.436237 4.929683
4.291655 4.028845 9.548449
9.879480 1.799591 8.628451
2.908992 5.377169 3.795317
0.248443 6.628430 7.541210
5.469657 6.802758 2.852485
7.390664 7.494989 2.370804
7.607649 9.286498 9.661826
6.673540 1.790141 6.113499
2.886877 4.358778 9.288241
7.965375 8.219205 4.554019
4.596380 7.890424 2.081125
8.764311 1.335283 7.086751
5.927724 0.319396 0.599047
6.500559 2.552838 8.199237
5.183446 4.885331 1.529487
3.913940 4.710426 6.590022
4.779423 7.357465 0.453023
6.141163 9.695413 8.515777
1.757771 4.288943 3.514447
8.746337 0.448902 9.571955
6.375338 4.338904 8.591811
2.164890 0.384057 1.454017
0.027647 7.841896 9.490768
2.729192 6.117340 6.936714
5.848852 9.059368 6.952436
8.624916 9.746103 2.805613
5.983242 5.638629 1.999880
0.577449 3.474560 9.364628
7.349545 5.199685 5.956731
3.057115 4.751311 1.170355
5.573874 9.259974 0.075285
4.893579 1.118848 4.215886
8.576063 5.103090 7.909379
8.119355 1.726730 8.910357
9.325440 1.953744 7.617913
8.580989 2.978970 7.951256
1.953412 8.765328 8.539746
5.665990 8.056876 2.077333
7.362530 7.387755 9.233670
1.964429 3.968049 3.455180
4.969960 9.866001 5.496958
2.372351 6.473545 9.905938
7.992779 3.997316 8.112592
9.903615 1.934615 5.914902
4.516840 1.416381 3.845571
9.010717 6.827746 5.429694
8.066159 5.090517 3.850003
7.222995 5.925360 0.046807
5.854678 7.767034 7.524604
3.419683 1.501386 3.487690
1.436944 3.626831 5.779189
8.707887 4.874336 3.588984
5.558824 7.162952 4.620568
6.765548 8.745540 7.369782
9.635385 0.175081 5.446066
7.100279 6.641130 4.412942
3.323370 1.456459 2.532218
5.448409 1.268686 8.296495
9.475379 2.464208 9.450654
2.653414 9.407234 2.079174
3.982859 1.527302 7.990623
8.073631 2.410657 2.321224
3.141096 2.061516 5.670464
5.751593 1.370349 6.100900
6.218729 5.683499 9.321387
9.142885 8.839725 8.942156
9.832683 7.072464 6.692744
8.014123 0.750290 7.362159
4.889897 4.914573 3.022731
9.085622 7.189827 2.407084
1.670208 2.401664 9.841640
2.250226 5.424457 1.779387
1.213471 5.567994 4.810100
4.494681 5.557599 4.706726
1.140677 6.215509 5.629179
