7.5891 6.7993 8.3696
5.7633 12.5178 2.3911
6.7551 11.4440 9.0914
13.5881 4.3302 5.3684
4.5711 1.9836 1.1300
7.7089 4.4686 8.6979
14.4157 14.9206 11.6793
4.9655 5.7587 13.4792
3.5089 12.3595 3.6803
6.7181 8.3616 14.3946
10.9732 12.5924 5.2401
5.2394 13.0491 8.7776
10.7928 1.4732 0.9294
6.4120 4.6060 3.9918
12.2377 13.7984 3.3642
1.5049 2.8331 2.7630
10.8588 5.7266 14.6790
0.2799 8.0292 1.9950
12.7351 5.7188 3.6098
8.7450 13.0901 0.2295
3.4562 13.5435 6.3029
1.4442 13.9686 14.2041
6.4010 2.9385 0.4001
11.1404 11.5700 11.0638
10.3688 5.3004 4.3109
8.6230 11.9028 7.0582
7.7280 5.8311 12.3360
14.3470 4.1146 14.3983
12.1934 6.0632 3.7989
10.2702 8.1393 8.8636
14.9070 14.7145 10.5508
7.7762 2.4990 1.1291
12.3062 3.8333 10.2232
4.5612 3.2183 10.2578
2.5735 1.0563 14.9338
5.9850 5.4088 11.8435
3.1668 11.9082 3.4881
10.8996 11.2767 1.6282
5.7458 12.6997 7.3689
6.4837 0.9966 2.3258
14.1974 14.8379 7.8010
9.9491 1.9899 14.1750
9.4270 10.9309 12.8689
3.5929 10.4660 7.0604
4.5488 2.6020 10.7417
2.8237 2.4962 5.7080
6.4294 6.6365 3.3542
14.6391 1.4698 11.9518
11.3164 6.8673 4.5217
12.6347 11.2146 3.7139
13.1667 9.5721 2.5879
14.3482 5.4691 2.2037
14.3601 11.3046 6.9633
8.2630 7.5931 7.5861
1.2762 9.6065 5.3460
2.5083 5.4035 6.0043
0.8053 4.2376 4.6216
2.2037 6.3423 0.7689
7.3690 5.1133 4.3768
9.7971 9.5524 1.7813
1.7679 9.8353 5.5034
2.4200 4.1381 4.0866
3.6076 0.5036 5.1531
13.0728 0.0072 0.3761
2.2855 8.1817 4.9132
10.7192 10.9733 9.8162
7.2238 12.8959 14.8245
1.9483 5.8722 13.0650
9.7280 6.0440 10.7781
4.1588 12.8220 1.2676
1.5712 11.7818 6.3700
11.6856 13.6923 11.2779
9.6854 4.2168 7.6275
3.5543 12.3486 14.8820
0.5430 8.0567 12.4306
14.4757 5.9467 6.7138
4.5830 0.8313 3.1979
14.5591 11.6264 14.8583
9.0264 0.5280 6.3662
13.2790 8.1262 12.4718
0.2262 4.9602 6.4026
6.7261 3.9859 11.0977
11.8106 12.5018 6.1557
1.2979 8.1883 12.5762
4.7893 0.9447 4.9919
3.9732 0.0315 9.7587
0.2980 12.1420 13.9493
12.0713 11.4634 10.4369
12.1261 8.2867 8.8857
0.3874 6.9783 14.6686
0.7669 5.8360 13.5708
7.8050 13.5485 8.3952
5.3467 14.2225 5.6135
12.8356 10.5259 14.7036
8.8812 11.2123 0.8675
10.2975 0.3382 3.6300
11.2885 3.9654 4.1720
9.6679 14.7167 1.4266
2.3350 9.1854 10.9994
2.8837 9.5569 0.2294
2.3777 2.2545 5.5387
9.2529 14.1842 8.1764
7.2458 7.5001 2.3085
9.8447 10.6142 9.6893
5.9758 11.5470 1.0396
1.4895 6.8670 6.4200
4.9132 14.5566 11.2914
6.8264 9.4424 4.1320
10.7650 11.2896 4.0656
9.0362 8.1850 9.4982
0.1841 6.0183 0.5350
8.5899 5.7191 8.6144
0.2206 3.9303 5.7539
8.7076 8.6229 3.9094
13.6856 0.3533 10.4423
11.7473 13.4742 0.7693
7.6899 4.5764 1.0777
8.1531 13.8773 7.6153
13.7786 0.9173 12.2316
5.5584 4.5097 0.6860
14.8296 11.8649 7.5976
6.4557 13.2562 14.9192
14.3664 0.9010 3.8767
5.0658 4.5551 8.6048
3.6608 0.3665 11.6806
2.3090 12.4292 6.9590
8.8839 13.8667 12.7608
2.0124 1.6023 8.3607
9.3245 12.7390 5.3239
13.0964 8.9410 11.2698
2.6002 4.5740 6.0432
8.1214 5.2885 10.7244
12.1504 3.9229 4.9360
9.8603 11.5190 7.7843
4.4507 4.7827 14.9539
0.8344 12.1488 1.1480
12.1167 5.0635 14.0057
2.9294 5.9652 2.6763
10.5284 10.0629 13.8612
4.1468 3.6128 5.2745
8.8901 1.1500 1.0571
10.4214 9.3681 9.6934
13.8465 10.1287 12.2469
14.0833 12.3780 7.9786
6.4823 10.2209 2.4623
0.4626 1.9203 1.1942
11.3463 4.9761 4.6109
11.9633 4.9705 1.9398
4.5338 5.5752 9.2781
8.2232 8.7385 2.9312
6.0587 11.2445 5.3925
6.1032 7.0488 9.0142
13.3485 6.1204 10.2243
6.2177 2.4073 10.8847
4.6763 10.5859 0.0673
9.3318 7.3585 8.7706
14.1675 3.3433 2.0502
6.4134 5.4506 14.7761
10.1695 13.1025 8.5767
5.3435 11.1989 2.3869
2.4527 1.2462 7.8262
8.8360 7.3012 8.2015
13.4240 6.8182 12.4086
1.8934 13.1246 14.5230
1.1573 7.6793 10.6927
0.8308 13.5703 9.5849
14.3801 11.3896 0.5052
2.1295 6.4980 4.2828
10.5623 11.6761 4.4882
13.0104 5.2910 2.2248
1.4297 12.4552 14.9833
6.8844 2.7777 7.0828
11.4858 4.1768 1.9459
10.0243 0.0823 1.6348
5.9310 9.7976 5.8676
9.7433 9.7189 3.6866
10.0156 5.2600 0.9940
6.0193 11.8587 13.2605
1.5222 10.2751 11.8908
9.0065 13.4791 11.1317
10.3721 6.0428 9.4349
6.1720 3.8632 13.3977
8.3513 11.8944 5.6500
11.2980 9.0528 1.9022
11.5246 0.2515 3.7172
4.5301 2.0856 6.0577
8.9717 14.7874 6.1780
6.4339 2.6966 11.0654
14.8989 8.2233 1.3529
3.8732 10.5290 2.7259
0.8996 4.4254 14.1855
0.8086 3.0283 3.8675
12.4753 6.0266 5.6968
10.0801 3.8780 4.7601
10.8464 14.0956 4.6346
7.5047 11.1964 12.5434
5.9822 8.4062 0.7761
12.0538 7.4371 1.5949
11.7007 11.4914 12.9202
4.3808 11.7519 5.2769
