2.1708 7.3485 7.5765
14.5327 12.1798 11.8525
10.2007 2.3488 13.6969
6.5022 8.7413 1.4921
4.6076 12.6267 1.8641
1.2799 4.8846 5.2404
7.3683 7.2700 2.7244
0.0259 5.3581 4.5505
8.0814 8.4036 10.7318
6.6179 5.7640 9.6958
13.5994 9.9298 0.3992
4.4846 14.4559 14.4543
4.4773 3.1938 0.0777
1.8538 1.0817 14.7335
14.1973 5.0575 0.4003
13.7392 9.3104 13.5593
4.5143 12.9062 12.0653
10.0769 10.0463 10.5253
6.9098 14.3051 1.4952
6.1107 5.5511 7.2556
12.6010 1.1264 6.2142
6.6892 5.6549 9.1828
10.4703 9.3931 7.5773
5.4972 14.8328 12.2250
9.9677 1.2445 5.8449
10.4113 2.8366 6.4187
6.5150 2.0937 12.6274
13.3235 4.1890 2.4298
3.8572 10.7344 3.2881
11.0961 13.6756 1.3594
10.4021 10.4731 9.3092
9.8111 4.3361 2.0969
13.6913 2.7632 13.7112
12.0280 5.8440 7.2611
4.3182 3.4576 12.1115
1.1457 3.1048 14.5952
5.3440 8.8238 9.2770
10.3073 12.6225 11.9644
4.3126 5.1215 14.8732
13.6398 6.4530 4.2886
5.8935 12.3371 3.4164
0.6057 1.6338 3.1228
13.2926 2.2507 2.0580
11.0508 13.3220 14.6166
13.4448 13.8758 12.4551
14.2668 7.0514 13.1467
0.9811 3.7541 14.1168
6.4020 7.5516 10.4016
5.8846 0.8041 12.5090
3.1674 13.4443 8.4150
7.9031 14.8115 5.3375
11.4800 3.2369 11.9420
4.3884 12.9544 6.5415
12.9239 14.3100 2.9829
5.0634 14.7406 6.6472
1.2109 3.7019 6.4213
6.0510 9.0181 10.3234
1.7565 0.9591 3.2494
14.3839 3.1840 11.5036
10.7868 5.3293 13.7000
12.5183 12.5553 14.5847
7.4675 0.5927 13.8092
0.3580 2.4573 4.9885
5.8220 8.3211 0.9480
3.3978 9.9554 3.1814
4.5753 10.4626 8.2167
12.6531 13.9556 0.1474
1.5436 14.9848 6.1588
7.6741 0.9510 13.6974
7.6102 8.5915 11.5640
11.2121 0.2655 13.2949
12.3510 10.8213 13.1033
14.4333 4.6260 12.6708
6.3340 13.2213 9.5428
9.9949 10.6225 3.1193
4.3461 3.4491 2.5953
4.8700 12.3448 4.2670
3.5766 10.5682 9.7572
4.7611 14.2185 11.3227
7.7667 1.3394 7.8200
2.7547 9.3144 13.1296
4.3191 1.6572 8.4890
11.8410 0.5902 11.9512
13.6706 13.9742 3.1924
0.0173 9.8061 6.2177
12.8662 2.6076 11.0277
14.0576 8.7184 8.6896
3.4342 9.6519 14.2712
9.8448 13.0249 0.0735
6.0542 0.8105 10.8936
9.4591 14.4393 3.4870
14.6592 12.6329 10.7294
12.8032 12.6618 5.7465
6.6075 14.7678 1.7710
1.2703 10.5948 7.8153
4.2434 1.8074 2.9900
10.4666 8.5997 7.6731
9.8861 12.8179 0.5841
12.7913 1.0331 3.4999
12.4707 0.9491 3.6059
7.8981 14.0643 14.0522
14.0062 8.0106 13.1778
8.2462 7.8337 8.3344
5.3807 9.0828 0.9912
6.2749 10.5393 9.2414
4.2155 10.6857 3.5777
7.4573 13.4372 11.2560
5.4825 10.0264 10.0030
1.9187 11.2292 9.6505
7.6987 9.9936 3.8253
14.3273 11.0121 10.7740
6.0185 4.0755 3.4556
10.5907 10.1229 14.1148
9.4408 4.3376 1.7229
9.6199 4.8774 2.3448
6.3041 11.1774 4.6605
13.1613 7.9719 2.5624
9.3730 1.2080 9.7586
1.4504 2.6628 2.4606
4.0348 12.6265 13.6006
7.4443 11.5119 12.0608
9.0853 12.5321 13.2777
9.8023 7.2503 9.6300
6.6869 5.3427 11.5143
4.2119 5.0557 5.2862
6.1522 14.5171 10.5611
5.7554 1.6441 9.8649
2.8280 8.8791 5.9849
7.1264 7.2274 2.1136
14.2748 3.8810 10.4994
5.9005 11.6561 5.9892
14.7501 6.9273 2.4815
11.5615 11.0096 10.3104
9.9539 1.2748 12.8211
5.0008 8.7792 9.7445
1.7872 6.8090 7.1033
2.1205 5.5127 10.8650
5.1880 9.6925 0.5202
7.1698 5.5215 14.6166
2.0305 13.7396 3.3797
7.0557 5.4682 3.1012
4.1002 1.7157 0.1438
10.2294 2.6592 11.9316
3.5906 3.3499 9.9760
3.4311 4.4562 6.7778
3.6707 9.7917 8.8798
11.7127 0.4464 6.2627
12.0749 3.0859 9.3702
11.6510 0.2519 14.7806
12.0598 1.7489 2.5095
2.6931 7.7986 1.2875
10.1248 7.1303 2.8958
13.9453 6.3307 9.2589
4.1644 0.2298 10.4248
13.1299 12.1747 12.6368
1.6907 9.6442 2.9147
5.8630 12.5153 3.5618
2.3638 3.0976 14.5498
14.2622 2.3641 5.1387
10.7170 11.9210 7.2345
3.1059 11.7375 14.1306
1.4624 6.2271 13.0573
3.0132 0.5830 11.9253
4.1369 5.0927 7.8413
8.8702 12.3718 13.3788
8.4518 4.9579 10.6354
7.6112 10.6602 11.5970
10.0446 5.4286 12.3826
5.1102 10.1857 13.7416
9.8705 6.8370 14.4809
6.9405 7.9072 8.2220
6.7290 11.6925 10.5239
11.2066 4.9267 2.4438
4.6826 7.1812 3.5192
4.4095 5.4113 5.4204
4.8067 5.6053 7.5532
10.3720 5.3655 8.3442
11.1735 9.4876 1.1649
3.6856 5.4308 5.8278
4.9908 0.6120 14.3048
4.6708 0.9520 9.4108
10.1806 2.8144 0.4029
12.1024 9.4562 6.5936
2.3904 4.0010 6.1638
10.9936 7.7958 5.9910
10.8435 2.4870 8.4846
7.1466 1.1011 6.2797
13.8261 10.8159 12.3162
6.0334 13.9981 0.0794
4.0103 6.6417 9.9926
11.9302 7.9308 13.8169
11.0681 2.6948 4.6128
2.9206 10.1879 5.7406
11.5980 12.0134 5.5741
4.2238 5.9298 0.6161
11.9299 8.9052 8.5747
8.9272 8.4147 12.2228
1.6876 14.1488 11.3628
7.6686 11.1350 12.6912
11.1733 11.3780 2.4920
7.8404 13.4046 1.3033
5.8945 13.1118 9.3328
7.3932 2.6932 5.1613
1.9206 10.5932 2.0670
6.2055 11.5951 10.5336
5.9141 3.2511 5.9556
3.1485 6.4939 2.6960
11.7101 13.5030 1.8504
1.7258 7.9193 13.8204
1.4265 1.5292 3.9001
6.4887 10.8137 9.5319
0.6231 2.3077 7.2983
12.8227 1.7669 3.7556
4.1031 8.4107 9.8899
2.4540 4.4615 4.3920
11.1517 3.8156 10.2699
3.2477 5.9451 7.1755
7.1231 2.3323 2.5879
7.1741 9.8591 5.0242
8.1147 3.1091 10.7994
11.7252 0.8991 3.7767
3.4962 12.4647 14.1041
11.9181 1.4599 11.1200
2.4282 6.1349 8.1761
6.7313 3.2219 12.3542
3.6842 5.2296 3.2728
4.9829 11.1949 13.5093
2.9986 10.6751 9.0157
8.6977 5.9036 10.9863
2.2906 12.2131 1.2759
6.7472 9.5304 5.9352
5.5485 2.6534 0.9313
9.1925 1.9268 3.8863
1.8858 1.9841 1.6221
10.7807 0.6406 0.0930
4.6787 6.3430 7.4242
3.3914 4.4567 7.1340
0.1982 3.2685 7.1418
12.0118 0.0210 8.0108
0.0914 14.4730 7.6872
7.9510 10.9317 4.3747
13.3235 11.4957 10.4895
6.2356 3.3675 13.8609
2.1329 3.3894 12.9645
10.9462 5.2002 11.1844
6.0145 14.4470 6.1631
11.2239 2.9564 6.4579
1.2945 14.9072 6.2469
3.2573 12.3598 9.9561
14.5462 4.0950 14.7194
14.1777 13.1221 13.9163
0.5406 14.0978 5.5819
2.6537 14.2803 5.3631
7.4789 0.8877 1.2355
0.9934 6.1505 11.2356
6.7252 9.7687 9.8458
7.2296 8.5474 4.4346
12.7471 4.5614 0.2111
8.5172 0.0298 2.7340
6.0972 13.1253 0.5850
7.3512 7.2287 7.2275
6.3893 10.7840 9.8648
1.2522 8.3844 11.7907
7.5144 1.0553 3.4683
3.6783 3.6613 2.2825
5.3407 6.3564 2.0769
11.0949 1.6363 12.6420
1.8985 14.3403 11.0749
11.6257 0.9761 4.6790
3.9961 4.1118 8.6229
12.3867 11.8585 12.3411
12.2950 9.2382 2.7565
7.8058 1.2476 13.7778
5.0060 11.3917 5.5799
9.9679 2.9530 10.1851
6.0952 12.3711 10.2727
9.1979 0.3839 6.6769
1.1401 12.8038 12.2918
3.9787 13.5276 10.8006
12.0428 10.7175 0.2146
11.3985 4.1178 8.4809
11.9139 6.6573 2.7171
10.0951 3.9140 13.7043
3.3003 14.4426 3.7193
12.1578 8.3691 14.8469
6.7225 14.7218 3.6806
8.5140 3.2178 7.9394
4.0431 8.9868 9.5839
13.7409 4.7542 10.2225
9.1561 1.9760 6.3582
14.9562 5.9863 14.2203
9.7125 11.4215 9.4728
5.9212 1.7304 13.5439
1.7458 10.0546 7.1429
6.2262 13.9321 14.3537
5.6949 12.8100 12.0299
1.7275 7.9925 1.7489
6.5487 8.7182 9.7853
6.4283 7.0723 8.5442
11.2484 8.8696 12.3121
