13.419685 4.141185 3.885272
13.811392 0.470459 1.044311
12.844427 2.787648 1.297940
11.672998 2.758942 2.897916
14.789116 3.136733 3.813073
13.865396 2.477891 4.102528
14.488988 0.115796 3.120231
14.263170 1.399887 2.491224
10.259409 1.802714 4.988598
10.004351 4.465012 4.495330
10.866513 0.201124 1.674869
13.532372 4.471673 0.476956
10.880526 4.388409 0.302549
10.011992 1.185951 0.904512
14.338160 2.136195 1.027550
11.451526 3.448739 4.969912
14.036069 4.813392 2.850938
14.444380 3.210564 0.414345
14.590961 3.806316 1.197214
10.447089 2.177881 1.797756
10.041665 4.800505 1.330222
12.728122 2.788401 0.702951
10.902323 4.435429 4.310074
10.192372 3.471417 2.491812
10.492375 1.427517 1.765809
13.150086 1.629957 0.735761
13.872755 1.025125 2.943445
13.576970 4.604322 2.617421
10.687433 2.311982 3.171547
10.897884 3.520433 2.653316
12.053385 0.227902 3.274652
14.647773 2.118739 1.928120
14.544480 2.232189 2.421420
14.944135 0.956796 0.594780
10.540644 2.217730 0.580532
11.089558 3.528797 3.339866
12.934025 3.886657 2.366831
12.126510 3.930184 2.666316
12.740297 4.658026 1.004747
10.322002 2.287171 2.569176
10.931578 0.254618 1.493322
12.765121 4.061692 3.470628
10.241188 2.667827 3.235690
13.037651 3.688648 4.890718
10.115926 3.171839 3.522345
14.910238 3.195565 3.077800
13.688732 1.756057 3.994736
11.370909 1.554628 2.057723
12.282504 2.764591 2.133105
11.280312 3.975100 2.831906
14.598999 4.456853 0.137084
10.748075 2.830527 1.306480
11.652378 1.827391 1.742302
13.913606 2.159394 3.503707
12.714249 1.943992 0.392244
11.241992 1.359834 3.280471
12.290566 3.739004 4.446850
12.717610 0.730901 0.305096
11.544501 0.490094 1.631279
10.778571 1.641172 2.495645
13.657523 4.197874 1.004231
14.188781 0.586465 0.841270
10.828316 4.161435 1.131019
10.003004 1.973006 3.409318
13.243152 0.606219 1.513407
14.319188 0.419611 4.438760
10.407506 4.660138 0.632072
11.090900 2.215024 0.137124
10.817333 1.284609 3.188565
11.345065 3.775938 3.963209
14.208548 2.896423 1.323097
13.741077 0.745290 1.105685
10.717900 1.493206 0.913367
10.064330 2.494735 3.598446
13.571095 2.933840 1.241343
10.401033 3.103197 3.256416
11.844608 3.778607 4.497542
14.285987 3.478147 0.715995
12.423423 3.931030 2.803058
14.666045 4.211994 4.618873
12.884463 1.017681 3.575080
12.396379 4.892168 3.344248
13.349391 4.064343 0.493596
10.961490 4.859628 0.251134
13.931823 1.932432 4.049193
12.486995 0.302119 1.890600
14.254908 3.525395 2.989211
14.968958 3.711069 1.753871
14.778039 0.813661 0.194812
10.312683 2.268879 3.664596
12.290784 3.777245 2.607729
10.377165 2.870721 1.998961
11.257471 3.836390 3.351932
14.481277 0.113508 3.751112
12.193975 3.234091 3.823781
10.835204 2.398835 4.117459
12.369493 4.202290 0.507446
14.040456 3.291491 4.651712
11.490369 4.523576 4.005936
12.227334 4.992627 1.886490
11.139094 2.227050 4.995460
11.443351 3.453501 0.058313
13.891018 2.961659 4.795155
13.453804 4.945564 0.696255
12.937426 4.350950 4.224296
14.018393 4.751933 4.291235
11.321977 1.236685 2.233196
12.645200 1.420048 2.169758
13.991435 3.180115 4.815931
11.340028 2.569327 4.553412
10.426206 3.853290 3.385125
10.290321 0.408679 0.688207
10.108048 1.956406 4.619302
11.035010 0.439140 0.895735
14.867889 1.453168 2.794123
12.808434 2.110286 2.797589
13.167386 4.211074 1.542338
13.691668 3.067292 3.332953
11.935787 2.191599 0.350933
11.864029 4.295660 4.893526
13.709556 2.503554 4.283603
11.725760 4.131441 0.845027
13.713586 0.084305 2.643961
11.919259 0.273025 4.713533
14.796235 2.376363 4.896315
12.347690 0.712186 0.922499
11.181548 3.509260 0.448132
13.269264 0.573876 1.243194
10.671986 2.487327 3.079311
12.116377 1.854698 3.601078
14.479047 0.974450 3.896223
14.812361 1.109413 4.773671
11.287641 3.749472 0.429715
11.472226 3.795886 0.720849
10.662519 1.662907 2.615102
10.418925 3.131568 3.793626
10.255573 0.293311 0.691370
12.776076 0.481028 2.580614
10.948062 0.295766 1.284220
14.217532 1.973669 4.768461
11.743119 1.225470 2.956082
12.152483 4.030235 3.126948
12.285659 4.427006 2.133038
11.272610 0.285584 4.462367
10.680236 3.864694 2.962679
12.962132 0.074931 1.983827
10.104006 1.865317 1.853488
10.984701 2.468738 1.215215
10.330920 1.008426 0.102523
13.723401 3.997277 4.682712
12.987551 4.465177 2.718434
12.867126 2.012781 2.497080
12.081570 3.712648 0.641845
14.477106 0.121382 3.295545
11.169390 0.035581 4.017279
14.197823 3.967037 0.955271
12.887524 3.264868 0.363425
13.510793 4.976965 3.656913
12.286310 3.329509 2.790044
10.164245 0.446178 0.458229
12.240349 3.635581 4.988743
11.082989 0.983128 2.239258
13.660314 2.844168 3.798805
10.923776 2.559067 1.231431
12.153059 3.574664 4.542502
11.140799 3.367844 3.199119
10.037250 0.085022 3.255840
12.848086 1.765719 3.773141
11.719138 1.162062 4.783326
11.225177 2.388143 4.593504
12.585872 2.806274 0.834609
13.237124 0.803078 3.654812
13.969381 2.394754 3.093469
12.655057 0.542721 4.325355
13.517152 3.059601 1.932240
12.760937 2.080947 2.571135
10.842407 1.880725 1.114134
13.062101 1.561951 4.769715
11.261466 1.270378 3.019324
14.810993 3.155287 1.114191
10.814998 1.152283 1.564736
12.673163 2.412977 0.382686
12.914334 3.861337 4.555346
10.492918 1.731805 0.424924
11.942690 2.233252 0.603026
14.092192 1.732067 1.227025
10.094145 2.755102 4.096820
11.157374 2.724651 1.139535
10.853299 3.397788 1.867448
11.200119 4.031261 4.271880
14.387085 0.036257 1.727657
14.382310 1.538056 1.054205
13.443393 3.146320 3.102172
11.622183 2.246395 2.353230
10.469539 3.997354 4.984514
14.978044 3.259905 0.560867
13.869535 2.795445 0.516410
11.198453 0.330630 2.121648
13.055273 2.436823 3.963750
12.086376 2.173694 3.386457
11.849104 0.047495 1.869687
14.360512 1.026628 0.001970
12.872778 4.578159 0.221457
13.524774 0.524695 4.894088
10.028542 3.480404 1.158152
13.346470 3.657403 0.591736
12.851382 2.360150 2.463145
10.596042 0.933430 4.844524
12.750514 0.197529 2.618546
10.168538 0.516121 0.412734
10.347643 3.415523 3.071298
13.347818 4.396874 3.684814
10.071551 2.530192 3.919059
11.866854 1.464807 3.416672
12.242929 0.886198 2.296953
10.223898 1.669919 2.930568
14.642369 3.048161 4.962212
12.572209 0.243851 2.968358
12.099114 3.691193 3.263174
10.166282 3.815161 3.213827
11.956369 2.131586 0.242972
12.217119 0.947460 0.542807
11.656410 3.276971 2.907892
10.008123 3.393557 0.155794
12.524300 0.383239 4.620997
13.252162 4.275980 2.473846
13.798196 3.238165 1.597082
12.769141 4.925784 1.173709
12.383183 0.942124 2.872601
11.426769 3.522547 1.225762
10.912121 2.800567 2.932656
14.052926 2.168835 1.268543
11.038446 3.612058 0.828508
11.577296 0.109098 1.619735
10.712038 2.687928 1.577707
10.897599 0.773812 2.880901
11.375435 3.850509 1.776990
12.943069 0.745625 4.375876
12.570313 4.008586 0.783657
12.506890 0.307566 4.806702
13.023333 4.792289 4.798181
10.957187 3.033987 1.999641
12.714387 3.726723 1.970332
14.049816 1.336891 3.873734
10.202228 4.093837 2.567347
10.453178 0.506451 3.354445
11.241472 2.737850 4.299341
11.465971 3.003748 3.173768
10.777305 2.390411 3.813336
12.390526 4.498787 3.874455
10.461282 0.448580 2.413643
10.568605 3.881269 0.471994
12.897729 2.056894 2.874745
13.093378 1.147575 2.251548
14.768391 0.826701 4.125809
13.016379 2.491648 2.418044
12.515246 4.439446 3.055430
11.226402 4.243783 2.866745
11.874206 0.020151 4.873502
11.111287 4.712059 1.777660
10.550045 0.129744 1.450121
12.901464 2.009061 3.805696
14.850056 4.419448 3.760099
11.213975 4.498903 3.711606
14.440729 0.062862 1.030996
10.395886 3.735170 1.964463
12.198967 2.839457 3.508904
14.605819 2.339886 1.086154
13.105899 1.529109 0.457482
14.967098 4.954611 2.768373
12.469432 0.973220 0.546958
10.651812 4.981113 3.857743
11.728875 3.276766 2.833248
12.522976 1.512751 4.675530
10.665128 2.891868 2.858570
11.459306 1.148039 4.254686
14.089574 0.956465 3.151550
10.097646 0.303038 3.602163
10.884341 0.878155 2.903536
10.941726 0.547439 0.199450
10.117134 0.059304 0.432197
13.998921 2.569516 4.855174
10.945617 2.836622 2.440121
10.973339 4.659674 0.627522
11.520952 3.383584 4.844890
11.065129 4.924759 4.513014
13.860458 0.513761 3.796495
11.844178 2.249098 2.014700
13.122718 1.537212 4.957215
12.686370 3.129993 2.249338
13.421666 0.857286 4.449891
14.385074 3.700790 2.479499
14.803915 2.140099 4.919287
10.876053 1.646518 3.258001
10.155298 4.185838 0.177287
12.190998 3.901774 0.230477
13.928085 4.068174 4.967423
11.064145 1.367367 4.370853
10.654396 0.822351 3.907811
14.454445 1.609721 0.079622
12.027947 3.069505 1.943009
14.929841 2.546074 4.928019
14.363931 4.298338 3.641505
11.905691 1.905349 2.585770
12.860983 4.830899 1.342306
14.807851 2.770467 2.459942
12.348072 0.368857 3.410302
14.533191 2.463371 2.006724
13.544934 3.096983 1.018843
12.307800 0.657092 2.718122
10.952535 2.713253 0.689735
14.913571 3.888719 1.776280
14.754166 1.084533 0.295002
12.004293 0.776889 1.785732
12.218303 3.018781 4.338804
13.444832 1.956413 2.586806
10.245535 3.911944 4.025684
11.190746 4.443022 1.427326
14.546034 0.681069 1.621249
13.181017 2.942889 2.137672
13.442565 2.585519 2.108205
12.879977 3.530067 3.453719
14.539463 3.234794 2.817177
14.465927 2.260545 2.601633
14.661502 4.298086 1.060721
14.466912 0.953238 2.925494
11.358206 0.354422 4.402599
13.558682 3.200797 3.173864
13.504615 1.290072 2.410725
11.128030 2.381486 3.430725
11.535324 3.979602 3.866544
10.734934 1.579597 4.930403
13.711256 1.489346 0.522391
10.875826 0.964081 3.488320
12.447009 3.531712 1.919455
13.142358 4.790813 2.959598
12.492997 3.274701 3.928711
13.253478 1.811289 3.995236
10.904175 4.664935 4.207306
11.728011 4.642508 1.393546
13.142109 2.701461 4.155330
10.735700 3.794835 1.156348
10.268132 2.859846 1.874725
12.999090 4.345779 2.170519
14.892936 4.890485 3.951822
10.478733 2.982709 3.577497
10.387385 4.117703 0.751620
13.465339 0.486738 3.073845
12.550348 0.602695 4.203085
10.482572 2.862045 2.836758
