0.997479 0.928777 1.998820
4.234469 2.107098 0.733764
2.506881 1.776272 1.470589
1.105882 1.455585 2.803767
0.285834 1.776157 3.256923
1.652673 3.227410 2.751261
0.421783 2.565880 1.908787
1.781747 2.126188 1.822889
1.286327 4.145211 4.656300
4.716999 0.096700 2.332409
1.532990 1.819494 1.075337
2.502742 3.624658 2.718036
3.775279 4.250388 1.548183
2.422694 3.492752 2.488646
1.578361 4.478825 4.920776
0.100797 2.919964 0.842116
2.449989 1.078178 1.902359
4.468481 4.084656 2.384435
2.550021 0.073829 0.796730
2.705613 0.353019 1.389493
3.447017 2.314008 4.827845
1.587989 3.248223 1.206953
1.237078 0.204150 3.266763
3.938053 1.069107 2.512943
2.294841 0.439994 0.843939
3.267852 1.539472 1.681551
0.224457 1.475729 2.896687
1.756764 4.333859 1.945239
1.937085 3.092459 4.735137
0.424234 1.243013 4.500874
0.116140 2.066072 4.245125
2.408035 1.802222 3.517133
0.509977 0.661085 0.969140
0.779557 0.486093 3.903479
0.999892 2.740186 1.492314
2.070907 2.934502 4.494666
3.761942 0.285890 3.280692
3.177733 1.618670 1.173104
0.720087 3.034196 3.674358
3.026065 3.707274 2.194370
0.984685 2.424914 0.095969
0.257720 2.063872 3.444867
1.554166 1.546143 0.618071
4.048134 1.588870 4.547858
1.782874 0.295934 1.164304
4.877179 1.795926 0.035558
4.513380 0.905538 3.786074
1.631532 3.462522 3.336286
2.487818 4.418998 4.567363
4.567630 3.127891 3.298267
4.677860 3.391656 0.745143
3.998402 1.278981 4.391051
0.679547 2.634055 4.193275
2.672544 3.614978 0.763764
2.680046 1.478220 4.045712
1.293033 4.313310 1.242091
4.003650 3.214815 2.327439
4.506662 3.116484 0.556610
1.412316 0.516902 0.738569
3.907182 2.198262 2.876061
1.022105 3.897555 2.497200
0.657645 1.338568 3.779658
2.984458 2.510050 0.873872
0.693127 4.465592 1.233605
0.449721 2.414595 2.986410
3.526235 4.699735 0.354737
0.292781 3.129958 0.704919
3.087335 4.245997 3.294347
4.935435 2.279183 2.451454
4.013369 0.622072 2.477344
1.539445 3.522177 1.054793
3.277413 2.497143 4.897161
0.402619 3.867934 3.171209
2.116936 0.754515 1.900699
0.166594 0.482097 4.295023
3.785801 0.524694 1.465796
1.956189 2.198560 2.166639
3.380523 3.895848 4.916688
2.405297 2.461898 0.814676
0.771891 2.982105 0.656452
2.993270 4.925740 2.710121
0.235490 1.079470 0.053518
0.761590 3.194429 0.162967
4.366999 0.970833 0.488912
3.765308 1.543775 2.647988
2.425489 4.201756 3.979771
3.685450 1.022484 0.690399
2.681092 3.528426 1.032494
0.567441 3.234274 1.065076
2.202055 1.777288 0.021056
0.559566 0.104890 1.379198
1.982851 2.433295 1.269758
0.970266 1.229425 4.931549
0.669285 2.009662 0.690604
4.697419 0.499829 1.050585
0.711402 3.698981 3.991938
0.372954 3.513336 2.142954
0.786147 4.968531 2.362177
4.214665 0.935718 0.337793
0.935581 1.013451 3.070854
3.218807 0.480903 1.149806
0.446854 4.768021 0.215642
3.413618 0.101601 3.327264
2.451698 2.981500 2.530343
2.374321 2.113017 0.323690
0.523199 0.779512 4.021933
1.057210 0.174069 3.719684
4.209424 4.839527 3.488822
4.014214 2.556569 1.882847
4.359044 2.702677 4.205834
1.543800 0.372294 2.633999
0.212522 2.898145 4.671084
0.043102 2.722230 3.946319
3.568710 1.076467 0.364002
0.715356 0.018944 1.048816
0.391177 4.424645 1.118324
3.496026 4.440732 4.864852
4.234151 1.537510 1.228767
4.633230 3.580420 3.894596
2.302349 4.849985 4.909709
2.676249 4.736331 3.675957
0.799843 1.912505 2.479402
3.677537 1.168448 0.556719
1.370018 3.435826 3.680341
1.913100 4.704152 3.467400
0.564633 4.590427 4.356076
0.536252 2.333451 2.860042
4.336579 3.505387 2.633043
3.117505 2.122398 4.468288
1.271531 0.493455 1.823351
4.813177 1.877476 1.025194
3.030477 4.917410 4.052782
3.374192 2.477456 4.726904
0.660133 0.257218 1.312549
4.597465 2.175485 1.739647
4.902848 2.810957 2.022665
3.570288 1.875452 4.332298
3.572665 4.140348 0.125282
0.709109 2.279311 0.053728
4.902100 0.173398 3.214003
4.991405 2.148589 3.386002
1.268902 2.067859 4.059359
4.209827 1.020286 4.918129
2.338763 4.176216 4.504002
2.432135 2.559617 2.640074
0.187533 1.439556 4.781720
4.844179 0.291806 3.720802
4.545334 2.403789 3.309628
3.699937 2.298398 2.817212
0.846376 3.766649 1.706259
2.632087 3.251662 2.145274
2.538731 4.435343 3.851691
3.151930 4.180795 0.527916
0.461817 2.236050 3.388888
1.487706 1.313308 1.991625
1.008007 3.959245 3.073618
3.739364 2.435011 0.107425
2.355440 2.826718 2.069322
2.419414 1.976983 3.250381
0.326700 3.180824 0.363056
3.243052 1.561440 0.491531
3.263415 3.181543 1.056253
4.187349 4.701371 4.243860
0.216349 4.427055 3.709370
3.213608 1.731908 4.728835
3.068727 0.245868 4.426360
2.329847 0.018735 3.839412
0.775354 4.777523 1.253419
3.445691 0.356847 2.009650
3.621143 1.989359 3.693760
2.465602 2.723584 3.380916
4.824456 3.580884 1.719670
3.164197 3.667669 3.619894
1.278190 2.636395 2.781564
4.647846 2.492395 0.168763
2.739063 1.662465 2.913903
3.884941 4.070264 4.684383
2.699269 1.435224 4.805088
0.192417 4.566982 3.217461
0.467686 4.415624 1.018818
1.374591 2.554146 4.016488
3.041352 0.836832 2.219545
4.521450 4.616380 0.003712
2.389053 3.458578 4.827959
2.621892 2.012105 3.938676
4.659367 1.898627 1.091192
4.465413 1.216576 1.698065
4.265020 1.287348 1.839099
4.063144 1.533569 4.786263
4.635696 3.369099 0.405634
3.659754 2.426470 1.156130
4.217266 0.450019 3.865037
0.237608 2.214621 0.677759
3.667073 3.662155 3.864536
2.798167 2.527185 1.747374
1.202798 2.764495 2.921111
2.793962 0.715263 3.951956
4.175404 0.927990 1.067357
1.095266 3.736300 2.793082
3.686431 4.416312 3.507055
2.551139 0.577261 0.927647
2.888699 4.520140 4.251246
2.308407 0.187825 3.830561
2.132586 3.100348 3.186241
2.714963 3.553016 1.022685
3.679811 3.115048 0.219880
3.704823 0.474572 4.300034
3.384723 0.457924 2.975189
3.411565 2.843713 0.349171
2.093574 3.749187 0.939184
0.921418 3.195958 2.822825
4.491268 1.464123 1.478908
0.078637 4.437797 1.966489
0.648147 1.119508 2.045876
4.292239 1.124143 2.714174
3.454740 0.270502 1.094966
2.013178 1.066509 0.187745
2.176860 2.589825 2.332664
1.032239 2.859656 3.293797
1.105429 1.371353 1.533526
0.142608 0.532132 1.940439
0.793866 2.905554 2.201195
1.545669 1.040618 0.836596
2.760270 4.745542 1.469070
0.237789 1.532441 4.973409
3.738491 3.804793 2.099022
0.574810 2.916588 4.284723
0.623455 2.320579 0.759048
4.191597 0.954653 2.404020
0.650374 3.992933 3.484970
0.692322 4.131398 2.686456
1.225888 4.680170 0.328779
0.266606 2.756776 2.551079
1.790691 2.130458 0.320793
0.777784 2.507834 4.174109
3.940894 0.228615 4.871112
3.063196 1.906823 1.612809
3.449174 4.419538 4.681998
3.235915 0.085262 4.356440
1.156993 1.892752 4.982582
1.410924 2.945111 2.420041
2.150092 4.721763 0.035797
2.449062 4.897650 1.335683
1.645000 4.905509 0.541370
2.990032 2.749653 3.199088
1.386443 0.551927 3.100594
4.150556 1.831765 2.480123
1.071862 0.720616 2.390855
4.295690 4.286832 2.215620
1.205334 0.940536 0.637777
