4.398178 13.820627 4.889399
0.559498 12.649894 2.753459
2.029047 11.407445 2.085411
2.152804 11.067991 1.499288
4.243631 12.043734 2.109885
0.870987 12.909180 1.416653
0.394647 14.483428 0.613138
2.294096 13.020449 0.187136
2.437131 10.706527 4.271726
3.539980 10.605258 4.869985
2.886519 11.407081 1.458310
4.458222 10.809544 0.429788
3.909877 10.310666 3.012477
4.385005 10.325202 4.042215
3.653982 14.528294 1.251517
1.859955 11.185478 0.848288
4.586430 12.093097 4.335599
1.400313 13.230458 3.920498
2.541945 13.624495 3.212940
4.167019 10.574564 1.039562
4.829685 10.823166 0.986132
4.332510 12.001931 2.459319
3.661371 12.746185 4.711714
4.157803 10.888612 1.275061
4.613369 13.782659 4.279354
1.049025 11.746075 2.975417
2.167199 14.959566 4.032600
3.917839 10.720925 4.120656
2.547918 10.841911 0.181360
0.452892 12.036573 0.429316
4.736346 13.523263 4.034699
3.352699 14.099314 1.386136
3.586179 11.329362 1.000464
1.194179 11.250441 0.068700
3.479726 10.328760 3.471192
3.492160 11.077810 0.976589
1.221735 12.805813 1.370494
3.397285 11.841169 1.468846
0.638012 14.013386 0.372092
1.002712 11.725461 1.275201
0.279603 13.048359 3.852549
3.486026 10.677521 1.330224
3.718731 14.361771 2.326493
4.764907 10.914809 4.132063
1.917955 11.920111 0.960114
3.877628 14.206719 3.147619
2.213429 12.211944 3.673154
0.912770 14.167099 2.545630
3.464492 13.570309 1.290488
0.364764 13.712435 1.258214
1.506966 13.765739 4.468967
1.939794 11.618152 2.596135
0.375897 11.695180 0.340047
1.661072 14.798607 3.527820
2.558277 12.201842 1.546335
3.492433 11.735896 1.625760
2.878162 10.528334 4.516809
3.534038 13.614459 4.089427
0.097386 14.623965 1.773639
4.831294 10.688582 2.494557
3.715427 11.884906 4.677733
4.421988 10.233052 1.029259
2.918780 13.811029 4.035890
4.346831 13.897608 4.576173
3.825367 11.321098 3.132794
2.454268 11.489463 0.452691
1.031075 12.670188 1.086698
3.600520 13.317961 2.102393
2.364405 13.053506 1.753323
2.041979 12.098115 2.723566
4.745370 13.722765 1.648505
2.849352 14.590723 3.552086
1.548405 11.280909 2.519716
0.751548 13.385742 2.178349
0.123832 13.744278 1.549107
3.519205 14.642327 1.256702
4.851069 13.381336 2.339624
3.280029 12.590301 4.266751
3.510882 12.188719 4.279815
2.360972 12.792496 3.226092
3.272370 14.268151 0.430653
0.052033 14.596986 0.589687
4.752499 14.357346 1.044892
2.629913 12.586463 1.261886
3.611841 14.465704 4.045731
0.222270 11.232575 2.298195
3.804507 12.072310 1.149249
4.864661 10.900688 3.734292
2.174222 12.358971 3.562176
2.225570 13.242339 3.815477
2.298207 11.340385 4.130532
4.184737 14.954599 0.092091
0.061861 11.105029 1.510401
0.216926 13.599074 2.403387
1.088346 14.210027 1.837310
1.519390 13.189969 2.533716
0.335555 12.899438 2.745200
0.266592 13.195867 0.156815
2.003752 14.532607 4.412212
0.911168 14.286816 3.673611
2.358412 14.270647 3.176583
1.485284 12.800473 0.009609
2.012989 11.389336 0.364580
2.649655 12.293423 3.674311
4.642932 11.355656 1.589532
0.246040 12.468041 2.569812
2.264565 13.332077 1.981193
2.193480 12.303677 2.432594
2.873613 14.042075 4.053787
2.572181 13.745051 3.672413
0.350908 10.908526 0.877993
0.133369 14.091287 2.045917
4.526320 14.765591 1.322905
1.628417 12.873662 3.420608
2.609735 13.910097 1.677416
1.081594 14.083665 4.775146
3.723587 11.364692 2.422172
0.309324 12.511925 2.403910
4.209862 14.954611 2.733811
4.772445 11.545817 1.784715
0.087618 13.853269 3.952481
0.780367 11.473031 3.012466
0.914473 10.796497 1.260053
3.554016 13.891831 0.111280
2.163076 13.131122 3.231604
2.875526 10.209389 2.494928
1.971145 10.656008 4.146015
1.462335 12.621357 3.857422
3.067665 13.965833 2.933440
1.694678 12.398640 4.138769
2.192768 13.344259 0.273638
2.366678 11.920326 2.898020
3.176451 13.373447 0.648338
1.441634 10.861460 0.479723
1.650863 11.634249 0.801593
2.500585 11.715410 3.112604
2.376508 11.201439 0.289826
1.825079 10.154636 4.888577
1.677017 10.285682 2.050978
3.386368 12.881759 1.515336
3.084633 13.009308 4.075914
1.956364 10.591687 4.449429
2.795860 11.068083 4.476451
4.334741 11.651586 3.353294
3.176195 12.993842 4.825753
3.266460 13.243205 4.590687
2.507458 12.781451 4.777333
4.335063 12.444953 4.362576
0.742923 12.315990 2.609729
4.333210 13.912091 4.273500
2.161710 11.550638 3.175220
4.175272 14.251437 3.452659
0.619482 12.014515 3.582292
3.401292 14.250002 4.022300
3.515495 13.000943 1.750913
0.681076 14.154991 3.323572
3.978870 14.577203 1.901717
1.484482 12.901798 4.287713
2.142497 14.165427 1.377565
0.961113 12.476115 4.136454
2.190787 11.939879 2.229558
3.900054 14.772311 3.342197
4.504358 14.779262 0.257239
2.862043 10.915296 1.453769
1.717816 12.377434 3.547747
4.424354 14.782028 3.289747
3.642312 10.714680 0.862800
0.669334 13.237855 3.187857
2.148580 12.649650 1.047208
3.044681 13.779166 1.743703
1.723919 11.500216 2.869476
2.052253 10.005809 4.524673
4.453297 11.014909 2.571000
0.495538 13.986026 0.059418
1.224259 14.262330 4.025506
1.694687 10.998365 4.864841
2.126698 11.453036 2.580614
2.279728 11.248623 1.472599
2.726712 11.162849 1.281484
3.095383 10.471988 1.682376
0.704421 12.577033 4.766258
0.641492 14.129658 3.236905
4.754008 10.070073 4.465011
2.601793 14.707705 2.029869
4.090234 13.280442 3.323836
0.023907 12.268662 3.246883
2.409428 10.881742 1.457402
0.300669 12.672349 2.369412
2.396155 13.029901 2.251531
0.964163 11.090675 1.489635
4.581571 13.041125 2.876658
0.509729 14.590430 1.636151
1.194071 12.501600 0.977370
4.866155 11.603921 1.014028
1.977573 11.510595 0.713124
4.123710 12.438558 2.729395
3.661475 11.210569 3.620158
1.112416 11.881882 2.425872
2.119219 13.709438 3.991346
2.492935 11.403641 3.745608
4.681606 13.878403 4.718935
2.991347 13.828244 0.610111
1.266727 12.188939 3.990668
3.076472 12.884377 4.669730
1.688484 10.839120 3.138663
3.880583 10.768681 2.551932
3.443324 12.878812 4.240211
0.066484 10.016675 0.712173
1.505462 12.089842 4.403930
0.483162 13.709345 2.546278
2.295992 10.688727 4.947387
4.172980 10.238455 4.457587
1.072145 13.217397 4.598110
4.458763 14.516491 1.715282
2.382179 10.532736 2.733253
4.332827 10.390887 3.095208
3.933257 14.039677 1.164925
1.628120 11.121184 3.022739
1.860064 12.047024 1.517302
3.286963 13.917507 3.463816
0.579791 12.330848 1.503168
1.833068 12.378344 1.789557
0.696330 13.648187 2.374921
4.897139 11.130445 0.426703
0.490690 10.694765 2.515437
0.793147 10.808119 3.428470
0.400939 14.257743 0.097777
2.197033 14.450403 2.848997
4.351560 11.610653 3.468202
3.321374 12.838169 0.684087
3.309251 10.999551 0.407516
1.847185 11.097089 2.223566
0.243927 10.918785 3.029688
2.504381 10.833502 1.811870
3.826963 12.745870 3.655910
4.489752 10.253460 0.160338
3.380566 10.657335 3.419861
1.602737 14.916677 0.546601
0.354768 14.838750 0.608482
3.107275 11.495001 2.048049
0.112591 13.608978 3.370067
4.929412 12.323007 2.316239
1.674020 12.149985 4.310261
3.561800 13.233061 0.754812
1.292601 13.619234 2.772829
3.154044 14.285823 3.427203
3.780558 13.215336 1.479833
0.295355 13.789393 0.502554
0.481460 11.352627 3.042467
4.784755 11.485968 4.119543
3.831734 12.023875 1.179976
4.569684 11.091895 4.378216
0.020231 11.421351 4.902884
2.198731 12.345062 3.532253
3.044328 13.215764 0.488800
3.847161 12.712119 3.125163
4.903798 13.744139 4.346703
2.932487 11.913243 3.004866
0.293212 12.896305 4.609314
2.054987 10.180280 3.090341
0.065180 14.661093 1.773195
0.679998 14.220175 0.745449
3.090629 11.089470 2.492672
0.701779 10.764543 0.963407
4.866046 14.371169 2.535384
3.627205 13.042441 0.427891
3.219901 12.795326 3.662728
2.524959 10.068103 1.407993
4.254254 13.359894 2.450439
1.344053 11.748249 3.341223
3.828749 13.547876 3.099799
2.472324 14.418360 0.100401
4.824803 10.985934 3.161593
2.439238 10.312179 3.519080
0.989991 13.675034 3.110209
3.980863 10.602744 3.289244
0.108935 10.419456 4.305582
4.768032 10.330508 4.160701
3.132496 14.850882 3.680033
2.958213 13.636264 2.788708
1.372738 10.328687 3.328683
4.807384 12.486123 4.756592
1.368737 11.861773 0.571483
3.183788 14.346085 0.305389
2.407533 11.888062 4.465226
2.073565 10.923080 2.366327
0.717120 14.198969 2.772076
1.323244 14.732353 4.587484
4.673971 10.906151 4.603419
2.717171 10.322122 2.112887
1.809617 14.028409 0.455143
0.145065 12.989688 0.037544
4.355640 14.125350 2.744787
1.408610 12.741664 3.387632
2.217353 12.334392 2.625269
0.065905 12.789381 4.625354
0.428132 12.264446 4.155039
4.586843 11.745933 3.061549
3.018580 14.591850 4.910915
2.733248 11.318182 0.752232
