ply
format ascii 1.0
comment cloud
element vertex 800
property float x
property float y
property float z
end_header
2.904153 -4.288232 0.764591
4.162708 0.577048 0.710053
-1.116331 -2.097025 1.283917
0.964100 3.280550 1.185872
0.006966 1.719879 1.180978
4.816107 4.707282 1.052635
3.310844 -2.452076 1.063578
4.117377 -0.142159 1.235698
-2.456599 0.012405 0.770002
2.725264 -2.608232 0.852768
-2.345268 0.900934 1.371637
-2.912575 -0.567140 0.808865
4.442662 -0.532784 1.046310
-4.806956 -1.372634 1.202639
4.653887 -4.830706 1.499925
-3.507381 0.220952 0.935291
3.194381 -1.647522 0.928093
-2.240774 -4.986801 1.342588
-1.492977 -1.920563 1.305503
-2.832423 -2.213717 1.231076
0.855140 -1.065518 0.963230
-1.519045 -3.681480 0.823939
1.573930 0.076838 1.108730
-4.843527 1.924404 1.376223
-4.356251 1.301856 1.383777
-4.003388 3.037549 0.608498
-0.810063 -0.479917 0.928350
3.147962 0.190917 0.964722
3.881779 3.104019 1.477615
-2.551893 -0.722988 1.177998
0.743697 2.015993 0.907246
2.683650 -0.653976 0.526058
-2.111706 -0.822638 1.065385
-0.909923 2.602056 0.596076
0.239742 -3.251631 1.334450
-3.651252 -1.614140 1.252519
-4.740177 -2.758277 0.960509
-3.471942 -1.408901 0.929211
1.268536 -2.696252 1.397339
-4.263817 0.794056 0.788458
-3.103036 2.981708 0.749020
-1.621461 2.866131 1.439197
-4.221299 -1.354990 1.309246
-3.083007 4.887604 1.320626
4.112698 0.938544 0.695194
-4.807009 -1.005997 0.643296
1.534319 3.355393 0.526030
-1.155911 2.298740 0.737042
1.726487 2.492753 1.274190
0.886917 -3.038607 0.740038
-2.765012 -0.316757 1.229103
3.472095 3.618281 0.751908
-0.080596 0.040380 0.895292
3.225360 1.834527 1.483162
-0.939875 0.879337 0.744812
4.846856 3.423568 0.876371
2.704894 -2.154392 0.801087
4.659502 0.754753 0.609625
0.143265 -3.767653 0.989894
-0.263089 1.902108 0.878691
2.554538 2.319678 1.194887
3.802913 -4.571627 1.317595
4.641458 1.757910 1.044250
-1.754481 -0.853098 0.532196
2.987046 -3.759031 1.118922
-2.893544 -0.800925 0.555391
0.455743 -3.057671 1.116356
-3.201519 -0.844405 1.185030
-1.526026 -1.156610 0.697768
4.313584 2.383916 1.319346
-3.539093 2.742156 1.411085
1.324009 1.070287 1.313087
0.929543 -4.773132 0.805109
-3.792616 4.310223 1.086643
-1.740210 1.862333 1.414815
0.629815 -4.658046 0.820665
-3.128214 3.188329 1.320028
3.006237 -2.997338 0.509475
4.721565 0.792212 0.503647
-2.852406 -0.333656 1.259712
-3.130880 -0.801612 1.261448
-0.450649 3.897137 1.288977
2.477653 -0.626387 1.430027
-2.183994 -4.246559 0.617906
-4.801201 4.466387 0.731985
0.412206 4.205352 1.403725
4.566006 1.844327 0.677236
-1.087231 -0.321075 1.182229
-0.798654 -4.071405 1.030463
4.689017 2.907481 0.583194
1.946076 -4.245221 0.785264
2.191719 -4.313990 1.020372
0.627020 0.373838 1.352350
4.746092 -3.398718 1.207538
1.888665 -4.922697 1.121883
3.950328 -0.768866 0.996033
1.993789 -3.627828 0.798684
2.351158 -3.394846 0.619245
-2.095891 -4.230894 0.909076
-1.965213 -2.949062 0.528518
2.829846 2.154842 0.711056
-2.032937 3.089273 0.932483
0.627701 -0.474664 0.918605
-2.506477 0.065538 0.544295
3.169834 -4.673450 1.089060
-3.894986 -4.306837 1.049684
3.294466 -2.424323 0.578104
1.027298 0.438984 1.443163
-3.130905 2.395511 0.599383
0.420354 1.050031 1.354834
-2.175012 -1.078721 0.500310
-1.765327 -3.816759 1.382281
-1.484720 2.807732 0.519720
-4.366808 -1.362139 1.257812
4.859617 2.360540 0.861691
-4.684654 0.129788 1.238217
1.624969 2.386621 0.901745
-1.287724 4.072896 0.570908
1.460103 4.210295 1.267507
-1.437517 0.351068 0.571253
1.737506 0.115084 1.422120
2.292355 -2.343215 0.550974
1.905526 4.357998 0.979325
-3.860380 -0.420808 1.223034
1.568932 -3.724088 0.893246
-2.200125 -0.672951 0.717233
-4.711986 -3.729467 1.259091
-0.851693 0.025317 1.284295
-0.664569 0.612755 1.422695
-0.328259 -1.622442 0.876165
2.048242 -4.283494 1.006252
-1.911562 4.435035 0.863128
-1.847195 2.733531 0.757082
-4.394477 3.388811 1.251033
1.868212 -1.331316 0.839652
0.678261 2.608310 0.928149
-1.505749 -0.146271 0.903674
2.051890 -2.989165 1.212661
0.373577 -3.755766 1.417796
-0.307551 -1.549491 1.166756
0.113245 -3.624479 0.971583
1.363481 4.982690 1.279205
1.600026 -4.508110 1.140971
-2.110422 -0.588564 0.560610
-3.592566 -0.479065 0.595664
-3.433658 -1.993681 0.537917
1.393909 0.713516 0.956816
3.728733 -3.500230 1.325853
-0.905037 2.839124 0.813083
-3.304798 -1.675523 0.884160
2.566025 0.913426 1.409477
3.324895 2.156392 1.336903
3.805824 3.890421 1.165048
1.068314 3.357874 0.766804
3.607286 1.083090 0.617041
-4.845850 -1.116068 0.516059
-3.927642 0.032047 0.607011
-4.074239 2.687348 0.792596
2.126047 3.775455 1.051790
-4.304182 -3.962181 0.564000
-0.036356 -1.151437 0.636228
-0.272931 2.761166 0.681081
-1.892965 -0.683482 1.131982
3.704052 -1.677722 1.115790
-3.295668 -0.886773 1.050766
-1.475372 1.028447 0.750501
2.741715 4.998051 0.871120
-4.695777 -0.070076 0.596690
1.729504 -2.915055 0.726461
3.163977 -3.371534 1.397705
4.322678 -4.576503 1.479692
3.762966 0.588172 1.147660
-1.806159 0.445721 1.416823
0.863641 -2.947661 1.142742
-4.227065 1.953294 0.533196
-2.421300 2.411070 1.496763
-4.057776 -2.409018 0.598952
-1.848127 -1.559002 1.182642
3.751872 4.904717 0.752836
-1.528332 -1.257355 0.891981
0.618981 2.608017 1.145934
-0.666192 -0.472746 0.936487
-0.410835 2.933448 0.750546
4.695721 2.690232 0.834446
-2.038455 1.677560 0.841548
1.273245 3.547783 1.459324
-0.799373 4.392185 1.298613
-4.388538 0.799833 0.958549
-0.106692 -2.625311 0.699821
3.133433 -1.013710 1.311016
-4.012470 2.583057 0.657182
-4.304082 1.508835 0.710462
-3.463685 -3.222017 0.866013
2.644001 -4.487605 1.380348
2.239954 1.829616 0.631787
0.650178 -2.489210 0.622234
-0.317736 -0.003298 0.993975
3.883258 2.467468 0.776411
2.666978 0.626668 1.068728
3.119423 -4.166974 0.951637
3.132623 -3.144198 0.934959
1.427172 -2.806718 0.611973
-0.419854 -2.421357 0.641050
3.646778 0.654034 1.321079
4.260074 0.039658 1.385883
-4.761940 -2.968400 0.734684
-4.484451 -4.324452 0.613461
4.587433 -3.285678 0.553417
-2.228394 4.843813 1.108298
3.733694 -0.314531 1.215353
-1.112049 3.673455 0.872810
-3.808999 3.487525 1.179676
-4.195568 0.115196 1.212959
-3.434921 2.066877 1.435342
-2.501068 -3.072480 0.564874
-0.114816 1.883967 0.692292
2.014979 -2.276154 0.568526
4.863986 3.320621 1.367994
-0.584933 -4.162759 1.292587
0.181849 2.731387 1.074642
0.218157 -4.000631 0.583663
0.394344 3.811892 0.773312
0.177407 -1.957955 0.797720
-4.912252 1.543934 1.060743
-4.982752 -0.124977 0.758044
-4.023337 -1.336969 0.572960
-3.984434 1.454418 1.230762
2.048969 4.475230 0.799080
-2.950840 -4.587303 0.952374
3.947141 4.188529 0.627667
4.286063 1.090817 1.302548
4.758933 3.073143 1.065532
4.390813 -1.161250 1.401586
-2.281117 -0.281570 0.995472
0.097768 3.688508 1.441426
-3.245450 -0.851520 1.391868
3.062097 0.346596 1.076460
3.884317 -4.798051 1.433893
3.512888 -3.414020 0.823089
-0.666331 1.416865 0.865642
2.586739 2.169769 0.545478
-4.024208 0.826009 1.089201
-4.597552 -3.566900 1.221924
2.532364 -0.545946 1.273519
-0.746447 -1.449052 0.649816
4.955493 -0.043387 0.944159
-4.027458 3.703290 0.676863
3.556277 2.758614 1.162127
-0.200169 -4.160105 0.657946
3.271502 3.903092 1.404164
3.171273 -0.282328 0.730635
4.159920 2.438621 0.791402
-2.021500 -3.599608 1.350906
4.497994 1.707195 0.958468
-3.483330 -2.636740 0.523996
-4.180312 -0.616191 0.994586
-0.683845 -4.831371 0.584543
3.283230 -3.483894 1.485345
-0.265789 -4.079195 1.088112
3.292867 -2.602558 0.756533
2.296868 -3.999819 1.063718
-2.905716 1.919100 0.576867
4.488816 -4.709601 1.299891
-4.392188 1.177405 1.425328
3.982797 -3.592922 1.374444
-1.955566 4.451615 0.841758
0.001481 4.330941 0.825768
-0.776481 -2.744969 0.535088
-3.281654 1.144213 1.151400
-1.418531 -4.719947 1.034905
-3.070656 4.317885 0.959346
-2.961135 0.229873 1.407631
-3.129432 -4.567768 0.667879
-0.109826 -1.575000 0.509666
2.979314 -4.231505 0.573316
0.689700 -1.070556 0.723371
3.932066 1.699263 0.533286
1.365445 -0.301101 1.002844
1.893401 -1.162778 0.814090
1.676072 -3.808430 0.680483
-0.505408 -2.550610 1.250084
1.893388 -3.998567 0.704451
-4.302923 3.074987 1.187605
3.598515 -3.647602 0.849265
2.778121 0.953734 1.011828
-2.547700 -1.572596 1.433867
2.680325 -2.740216 0.537352
-4.873574 1.394684 1.000265
-2.827534 -0.429977 1.354423
-4.348628 -0.998545 1.087974
2.802269 0.928520 0.776871
2.558742 -0.087324 0.897681
3.136360 -1.965158 1.180266
-4.955183 0.590613 1.390812
0.012327 1.694986 0.541066
2.048362 -4.733068 0.571539
-3.445989 -0.341283 0.825052
1.497907 -4.423167 0.732780
-4.158899 -3.135946 0.764931
-3.186741 0.605087 0.721270
-0.242032 3.661889 0.695825
1.535652 3.828057 0.630624
-3.541309 -4.300560 1.433954
-3.147767 -0.808949 0.644189
-2.955536 0.830065 0.704404
-2.612992 -3.529301 0.746266
-2.734462 2.654322 1.433015
-1.048509 2.442353 1.255714
1.537897 4.033410 1.289699
-0.619682 -4.915140 0.604758
2.759739 -2.833158 1.336310
2.192685 3.271867 0.908193
-3.734731 1.705801 0.762823
-4.511584 3.943899 1.075750
3.779416 -4.428203 1.322183
-4.201689 0.969640 1.278652
-3.516608 0.690466 1.389997
-4.778667 -4.643256 1.428132
1.283364 0.135221 0.738122
0.823706 1.095203 0.923858
4.869037 -3.087068 0.514629
3.869324 -2.266704 1.379322
-0.891568 1.403473 0.654572
-1.284142 -0.316991 1.361475
-2.031480 3.580137 0.829387
-3.475931 -1.576182 0.868134
-3.619163 -2.333403 0.539132
-3.677163 4.848659 0.826879
-3.858852 4.111358 1.388364
-2.594880 -4.710073 0.525547
-1.933314 2.707286 0.906327
4.615790 -3.896652 0.531400
0.784733 -4.725148 0.870923
4.875958 -2.263045 0.672641
-1.275331 -2.306541 0.752218
-0.423734 3.193188 1.377598
-1.754213 2.106672 0.936049
-3.171123 4.816094 0.773798
-3.568353 2.115129 1.089338
4.450792 -0.817444 0.642107
4.868107 1.989277 0.759392
-4.550905 4.994591 1.046248
-3.496541 2.101419 0.737523
-0.764759 2.616814 1.179128
-3.136665 4.383650 0.991491
-1.361196 -3.863487 1.271989
-3.709037 2.047843 1.448245
-0.434882 3.508060 0.615805
-2.283054 4.543786 0.834665
-1.480949 -2.890307 0.819549
-4.056873 0.039290 0.651183
-0.718719 1.805548 1.310303
4.832576 -2.525323 1.259879
-1.711670 1.004729 0.984425
3.764293 -2.424212 1.037771
3.431991 -1.665430 0.559544
4.520584 -0.584813 1.055507
2.901095 0.291901 1.291342
1.595968 -0.506341 1.073828
3.565844 -0.068045 0.765306
-4.243553 -2.014112 1.167548
-0.371693 -3.410349 0.861488
4.892562 -4.526500 1.044873
2.696002 -3.040213 0.987565
4.620754 0.819436 0.881175
2.796344 2.861154 1.218878
3.748820 -3.307524 1.383876
2.065296 -3.914446 0.505213
2.605020 2.492904 1.433617
0.231780 -1.948417 1.011515
4.242377 4.514994 1.200732
3.250389 2.143180 1.355625
3.438850 -1.732440 0.967104
1.730091 -2.104573 1.334974
-1.954201 0.236984 0.677620
-4.643702 -4.208553 0.659168
4.356551 -3.823235 1.157471
0.861203 -3.241421 1.370143
-2.018570 2.747236 1.392426
-3.508649 0.138574 1.143740
3.295232 -4.894329 1.025489
3.365202 1.735165 0.831393
3.145080 -0.763098 1.480000
1.450827 0.108524 0.819696
-1.339846 -2.858838 1.244186
-1.959297 0.517822 1.031982
-4.914452 4.791532 1.108512
3.336076 -4.265553 0.893481
-4.125673 -2.160826 1.464823
1.307550 -2.570024 1.071682
0.040749 -2.514507 1.437788
0.266894 -1.212936 0.507591
4.267128 3.181098 1.072671
-4.683850 4.128587 1.217187
2.733922 -2.977849 1.245080
-4.479476 0.429499 1.404977
-4.618464 1.368990 0.504402
-0.701823 0.218275 0.500330
-4.369248 -0.659236 0.972263
2.891440 -3.080245 0.529294
0.295631 -0.117806 1.474533
-4.709612 -0.987852 0.722065
-4.594993 2.955634 0.972665
1.126685 2.636044 0.561138
3.061118 -3.660013 1.022048
-0.622005 -4.114809 0.879956
0.545807 4.081539 0.544660
2.998295 0.355084 0.835124
1.105062 3.578009 0.891436
-2.752398 -4.418489 1.489921
1.130520 0.265156 0.707886
1.282795 0.394265 1.044780
2.341070 3.607020 1.487316
1.208742 -4.023900 1.292019
4.692421 -2.595544 1.493368
-3.027117 -0.934617 1.468298
4.510907 3.658415 0.989540
0.383395 4.388833 1.196376
1.719561 4.927246 0.610443
-4.005384 4.591935 0.941149
-1.194241 -4.940582 1.309019
2.693791 -4.522917 1.005335
2.069110 -3.523932 1.202699
-4.598606 -1.511379 1.245751
0.465943 3.299180 0.753469
-4.117218 3.926562 1.375699
4.958564 -3.131656 0.959822
3.972966 1.196642 0.710185
-4.789193 4.173620 1.365416
3.586496 -0.362683 0.917819
4.194296 -3.964564 1.250312
-1.464518 -0.421863 1.048033
2.195017 -1.242051 0.881872
-0.578963 0.776580 1.309876
1.552325 -0.613413 1.084470
-1.596826 -4.826541 0.890562
-1.774408 4.939977 0.609598
-0.755661 0.435402 1.395445
-3.544322 -0.263692 0.535470
3.311390 4.546174 1.363187
-1.513021 -3.441396 0.859962
-0.998504 -3.107624 1.139339
3.940546 3.080147 1.422200
-0.033762 -2.391689 0.651707
0.442539 2.992271 1.066950
4.564981 -2.284665 1.264433
3.867264 -4.668124 1.257584
-3.305333 0.170147 1.025632
-0.267850 -3.033136 1.124739
4.712962 2.578463 1.257527
-1.276337 1.411996 1.341028
-1.284269 4.236027 1.261813
-3.049698 2.829884 0.854005
-3.856769 -3.192240 1.496726
2.403048 3.001582 0.934503
2.700305 1.417370 0.524465
4.690130 1.689516 0.862617
2.734182 3.322629 0.627783
-2.566475 0.738241 0.621443
-4.598834 -0.339965 0.781535
4.854374 1.366410 0.553375
-1.595493 -2.020426 1.188512
-1.880285 -3.174029 0.573989
4.059552 1.165878 0.703290
0.850999 -2.661516 0.592900
-2.851288 -4.200849 0.563168
3.890962 -4.994458 0.767752
4.933609 1.083194 1.071899
-4.133214 -1.378512 1.464686
3.622516 2.523110 1.375557
-1.094843 -1.248236 1.375934
0.240724 -0.139966 0.676067
4.148160 -0.929150 0.764907
4.733792 1.505748 0.576393
-2.378361 -1.438608 1.278468
-2.871492 4.637676 0.569816
-4.194834 4.361470 1.056696
0.617979 3.480279 0.747876
-4.863956 4.203003 0.743446
-0.881017 -0.508603 1.490725
-4.266160 0.364304 1.256780
-0.947742 2.420926 1.336939
-4.600678 1.961459 1.071983
3.352173 3.906786 1.371014
-2.902610 2.163310 1.145491
-1.716913 4.978847 1.446174
3.700480 -1.514942 0.781339
2.462661 3.329977 1.095320
-2.809616 1.976348 1.190131
-4.281006 1.913864 0.892937
2.156738 -1.741644 1.379708
-1.092974 2.856018 1.479803
2.660800 4.003760 0.993769
-0.547052 -2.814515 0.890641
-1.539976 1.254968 0.971938
-0.487946 -1.078652 1.352737
2.485590 4.895481 1.145468
4.022203 -0.211672 0.544772
-4.502328 -2.716798 1.042170
0.241115 -1.181424 0.517300
-4.671646 1.538384 1.278535
-0.315905 -4.239106 0.828312
3.852828 1.036019 0.972007
-1.384097 4.312248 1.298678
4.324504 3.503628 0.546449
1.306085 -4.323265 0.658542
4.341553 4.933899 0.897960
2.571666 1.987269 0.729925
-3.965648 -3.377192 0.837901
-2.688486 -4.875839 1.498175
-1.058295 -3.287174 1.325414
-3.298931 3.381759 1.383902
-0.050884 -4.783607 1.437055
-0.286318 -2.668527 0.840936
4.562592 2.573056 0.797077
-0.662721 0.861105 0.734062
2.856268 2.827357 1.330117
4.419105 2.461505 1.179552
3.769888 -4.493986 0.736172
-2.913324 3.925114 0.876994
-0.039701 -2.729682 1.006712
-1.522602 0.533924 1.028140
-1.001413 1.442882 1.388728
-1.391932 -3.313718 0.880566
3.263592 4.762313 1.408524
-0.478609 -0.118440 0.941368
0.236943 -4.423573 1.246373
4.824474 4.372620 1.430254
-4.400207 0.862678 1.407576
-0.120424 1.991932 0.556953
2.740617 0.251758 0.705704
-3.488380 3.347380 0.976905
1.115316 -4.668665 0.931554
-2.605352 -2.316216 1.140892
3.674041 -0.303516 1.444709
-1.729003 -4.233964 0.612405
-1.709372 2.059067 0.951859
0.981939 -1.063366 0.692411
-3.164371 -2.273320 1.394108
-2.151114 -4.966212 1.464580
-0.833681 2.198303 0.978702
-1.463621 3.338093 0.604010
0.248772 -1.049595 1.285295
0.996401 0.642180 1.197141
0.666675 -2.723134 0.854671
1.541683 1.221976 1.387407
-1.922505 -4.878625 1.475832
-3.735738 -0.113561 1.057854
2.608075 1.442055 1.065728
3.507804 4.181918 0.797514
-2.429938 -1.186642 1.084506
-0.929080 2.651902 0.939642
-0.014308 0.976870 0.802191
0.333268 4.270121 0.567185
1.594902 -1.016223 0.752708
-4.583968 -1.809047 0.697855
2.214771 3.871420 1.042042
-4.380290 -4.507556 1.101670
-0.317114 -3.636146 1.108572
3.276711 -4.175956 0.888181
-0.487847 3.431100 0.921230
-3.509103 -4.893926 1.334238
4.850338 3.616572 0.976233
3.892855 -0.487322 1.487773
2.713136 -4.959747 0.939617
-0.884884 -0.983548 1.149581
-3.161543 -3.131992 0.550363
4.414112 1.244005 1.153340
0.323511 1.793588 1.351426
3.523555 -0.124724 1.442458
-1.579050 -4.594805 1.497321
-1.647117 1.561288 0.782179
4.855405 3.420388 1.075370
0.218330 2.203243 0.950718
-3.593046 3.299579 1.063817
-2.803253 -2.994905 0.657453
-0.180557 3.888879 1.356150
-4.575291 -1.778065 1.409569
-0.374660 -4.865952 0.949662
-0.810592 3.433916 0.780430
2.793363 4.418213 0.640833
-1.450580 1.555582 1.183765
4.825488 -2.685634 0.812232
-3.192301 -2.482555 1.409539
0.909867 -0.334071 1.171012
-4.103007 3.978311 1.145685
2.338640 -3.504023 1.059402
4.947537 3.259737 0.545776
3.191386 -2.086972 1.431922
0.557035 3.085862 1.127937
-0.152586 4.202712 1.494062
3.350300 -0.725061 1.037356
4.359741 -1.349493 1.210111
4.892065 3.022213 0.556210
-1.034608 0.294829 1.131736
4.909175 1.844490 1.264650
-3.440737 1.228292 1.278514
-2.464502 -3.471112 1.270112
-4.109839 3.447904 0.726283
-2.282615 -3.042249 1.475398
2.679376 4.322821 1.495182
3.529244 -2.494287 0.575596
2.788926 2.338810 1.436446
1.310658 -2.153446 0.789449
0.139665 -1.822146 1.189284
2.087043 -1.899981 0.838111
-1.091665 2.478923 1.467754
3.413084 0.568151 0.601504
1.771901 3.829525 0.997747
1.978047 -1.926273 0.928048
0.359360 1.919925 0.826023
3.852290 2.529486 1.145534
-2.479853 -3.485179 0.631056
-1.188523 -0.994106 1.216662
2.776426 -0.171825 1.480592
-0.072511 -1.443126 1.304559
3.892140 -1.778874 1.360017
-1.536007 1.864199 0.859637
-1.306698 -2.841336 0.824887
3.887358 2.093907 1.017048
-0.356297 4.350442 0.545727
0.161246 0.651975 1.445358
-1.672363 1.114342 0.643785
-2.233301 -4.310673 1.403013
1.559487 3.644769 0.583582
-3.801593 -2.145522 1.322625
3.792726 1.150512 0.651963
2.792031 4.791122 0.538132
-3.092517 0.955026 1.219489
1.940199 2.247095 0.780265
1.026329 -0.546804 1.214496
-3.154649 -4.396342 1.055085
-2.267965 2.975993 0.608807
-0.910135 -4.650012 1.432130
1.992427 2.006578 0.952314
1.387234 -4.770784 1.234447
0.322348 3.623052 1.001021
2.684105 -3.423640 1.104361
2.579377 0.142715 0.802774
1.178592 0.971507 0.700360
2.869901 -0.424546 1.042570
-1.657366 -1.592365 0.940219
3.812495 -0.321857 0.890113
1.149101 -1.885842 1.172567
3.223635 -0.618777 1.190507
0.462791 -1.410870 0.545920
-2.815618 0.662048 0.838744
0.424101 -2.620758 0.911765
-1.288883 4.886566 0.596892
1.974990 0.008700 0.735901
-0.242062 -3.058379 0.551642
3.361128 -0.229333 1.496242
1.780725 3.664151 1.236557
1.845444 -4.781932 0.587450
-2.828447 1.795541 0.520249
4.842498 0.479678 1.219288
3.416752 -3.304420 0.939192
2.890049 3.174764 1.286797
-1.697848 -1.311154 1.423476
0.356317 -2.061980 1.099300
-3.628968 3.281252 0.687108
0.384760 1.385250 1.282194
-3.541108 3.982591 1.455812
0.530378 1.298837 1.080231
1.487219 2.408177 1.181997
-1.098040 3.364459 0.837475
-0.014551 -4.452604 0.881528
3.756534 2.760490 1.234654
-3.914369 1.137065 1.427771
2.917329 -4.304922 1.128988
-3.292454 0.085779 1.289848
-4.632920 -4.175419 0.671635
-3.144254 2.359472 0.711959
2.650432 0.465017 1.032035
-0.948739 4.535735 0.676554
3.725205 -3.168646 1.134995
0.247075 1.060335 0.791653
-4.777496 -2.884179 1.291533
2.167136 1.140650 1.308110
-3.897671 2.226497 0.963787
2.893796 2.223043 0.680811
-3.318975 3.150740 1.146775
-1.545536 3.535502 1.492787
2.612714 -4.227283 1.122591
4.542314 -1.567328 0.535775
-1.285660 1.871225 0.517294
3.294002 -0.014137 0.820362
-3.092077 -3.093241 0.695784
3.071798 0.527096 1.313051
1.574941 -0.925643 1.344806
-3.072565 -1.099617 0.758619
-1.974960 3.097537 0.825645
-3.682291 -0.924017 0.736247
-1.170330 -4.735455 1.408383
-2.963514 -4.419367 1.002649
1.439980 3.562440 1.156137
4.945051 4.606008 0.915482
-4.879908 1.884093 1.131014
0.409198 -1.356317 0.885855
0.736666 4.386003 0.839678
4.142088 1.628031 1.134480
0.060053 3.443335 1.091062
0.437014 2.658523 0.793528
-0.283472 -1.208607 0.649348
-2.310957 -0.212978 0.868577
-4.439709 -3.138678 0.915198
-0.913423 -2.079859 1.128684
-4.474085 2.781257 1.414529
0.504925 3.939784 0.536185
-1.927064 2.244604 0.743661
0.336024 -0.348263 0.693716
-3.657030 -4.134907 1.002294
4.326300 -4.430521 0.929701
3.945212 -1.256744 1.229038
-3.100035 -0.361783 0.742416
-1.565557 1.091206 1.094498
1.134928 -4.935105 1.383857
-4.043138 4.897229 1.410678
-1.454322 -1.360611 1.458785
-2.488877 3.480947 1.273261
4.155167 0.349667 1.405988
3.525106 -3.695605 0.734531
0.798327 2.975656 0.697581
0.203463 2.098271 0.506488
4.307258 0.274361 1.206844
4.324278 0.145531 1.437467
4.693301 -4.125204 0.686935
-3.746211 1.558489 1.136944
-3.394422 4.112452 1.246460
1.767367 -4.067551 1.427614
0.414345 -2.364885 1.146860
-4.815341 4.023080 1.470294
-4.380250 -2.156561 0.844673
3.880804 1.539437 0.849929
3.688708 0.348182 1.043013
-1.427291 0.963276 0.883502
3.910506 -0.842111 0.501426
0.936751 -2.000085 1.231772
3.059056 -4.514665 1.251717
-0.725689 2.442809 1.246975
-3.866017 2.460935 0.845021
-0.662729 1.707257 1.022289
-0.427002 1.436338 0.859974
0.509442 -2.562829 0.516036
-3.944173 -4.776551 1.062449
4.914019 3.087154 0.623761
-2.558632 -0.088615 0.580041
-3.014476 -1.931619 1.255499
0.268029 -3.980681 0.509506
0.372082 -4.372784 1.459008
-0.601793 -1.511333 1.015255
2.718921 3.047371 1.483016
0.166544 4.187237 0.557998
1.096955 3.967514 1.083530
2.237464 4.200008 0.849327
-4.749749 4.077253 1.343482
0.706442 0.272248 0.861223
3.841945 -2.805844 0.760488
-4.826113 2.980466 1.357553
-0.948179 -2.862870 0.874653
4.262275 -2.327927 0.516833
-1.468456 -2.667457 0.890289
-0.412712 0.149824 1.154522
4.815414 -1.781725 0.754360
-3.006761 -3.458440 0.931988
-4.347448 -0.468266 0.556715
3.594226 3.739072 1.088093
3.684653 0.705529 1.256295
-0.279222 3.783356 0.913313
0.142072 -3.041278 0.920233
3.358064 -3.330261 0.588282
2.385595 0.755771 0.701941
-2.348510 -0.366711 0.654675
-4.831066 1.601726 0.981688
-0.202998 2.946268 1.029256
3.589123 2.513073 1.448940
3.958347 4.422612 0.573232
4.562262 -1.017436 1.099868
3.795632 -2.936133 1.026499
0.800436 0.509126 1.016233
-0.553944 -3.892569 1.373159
2.748498 -2.111489 0.705538
2.398216 -2.921119 0.540773
0.381434 -1.034363 1.172272
-4.126726 -3.887834 0.845157
4.260813 -4.681583 0.517590
-0.443975 1.567940 0.751374
-1.366662 1.102490 0.809327
1.295674 2.083589 1.116838
1.738380 1.603864 0.672586
-2.893121 -3.857053 0.913054
3.369388 -2.089211 0.982475
-2.100629 -3.704734 0.959237
-3.133161 3.429724 1.473941
-0.936001 2.469037 0.545504
2.305601 -2.984730 1.450968
4.654582 -1.586908 1.081937
3.092813 4.666150 1.295728
4.403484 0.941594 0.930393
-3.593942 3.011556 0.953838
