ply
format ascii 1.0
element vertex 800
property float x
property float y
property float z
end_header
19.1207 18.9565 1.1310
1.6974 16.7100 14.7194
13.3946 6.1627 12.1189
12.1360 11.6241 3.1677
8.6134 7.8706 14.4602
19.8964 18.9879 10.8835
8.8971 5.3648 0.7185
0.5489 9.2979 6.3693
7.6003 17.8358 10.5151
11.2102 4.7225 0.4772
6.5029 2.7339 10.2045
19.9737 13.4896 3.6369
17.8714 15.9352 14.6880
18.1319 15.2577 15.7950
7.0757 19.6195 19.2380
3.2237 15.0801 14.3030
9.2281 10.6071 9.8003
18.4966 10.0168 16.6305
7.0785 17.6570 17.9940
9.2202 11.3541 18.4066
14.4755 9.7322 4.4362
6.4933 13.9914 3.3214
18.1588 5.3628 18.2276
6.1913 19.1472 14.1241
10.0850 10.3550 13.0283
11.7589 6.2369 4.1564
10.2378 18.6831 12.4653
1.5075 16.4080 14.5190
18.1531 3.8281 14.8957
1.1752 13.0582 5.4620
4.5323 17.5098 2.1253
10.4473 17.0789 4.8966
4.2096 17.6116 8.4584
14.3392 0.6375 7.2471
3.4376 13.4553 1.6581
19.0912 0.5069 14.5885
0.4229 5.1138 16.2671
3.1424 3.6748 13.8299
7.7113 0.8632 19.8000
3.0284 0.7254 6.8840
12.3048 14.8492 2.2623
6.7443 0.6162 8.9731
15.3194 14.7989 18.0404
15.1132 17.2489 14.1069
9.4556 4.5106 13.2166
6.3261 2.0410 8.9564
17.4953 2.5507 11.6991
7.8591 10.2961 2.8766
19.1946 5.1819 12.1216
8.3951 0.3607 11.1590
2.8114 1.1356 0.6711
3.2233 1.9174 12.7015
10.1652 19.6693 18.6826
19.8905 4.6495 8.8939
5.0156 11.8247 12.4833
16.0041 14.1900 5.1322
8.4603 10.5238 0.0965
0.7100 8.1745 2.2235
14.4754 4.8173 1.9955
3.6352 4.6305 4.3471
10.4147 9.2881 6.1945
12.8352 4.2490 18.1313
19.2623 14.5786 8.6747
10.2300 11.6215 1.0247
8.3603 10.5013 3.6245
1.8757 16.0531 7.3237
10.3842 18.4290 12.2102
5.7916 19.6704 7.4445
0.3811 13.7062 2.0232
6.1184 16.8122 13.4514
0.3144 9.0285 8.2135
9.7173 4.1649 11.7749
1.4758 5.6872 7.4580
18.7054 1.5310 15.0997
3.8472 11.4311 7.8356
9.2645 15.0716 7.9009
2.4346 2.4354 1.6102
17.0014 12.8198 19.1934
13.8531 0.4934 13.1832
15.5442 14.4704 9.9590
7.1517 9.1407 15.9744
5.3788 10.5261 9.5512
19.0939 16.0870 18.6411
16.7201 5.9353 4.6325
9.7758 5.1881 8.5531
13.5828 18.3716 11.7180
16.3571 1.9189 7.1211
19.9550 2.9300 8.3354
1.3368 1.7230 17.9100
19.7727 12.9616 2.5703
5.9277 4.6340 13.4146
13.6220 8.7769 10.4799
2.2414 10.8179 18.9988
15.1155 1.9231 10.3300
14.3073 5.1452 17.8979
9.2188 14.0646 8.0833
19.9027 15.6563 11.4688
2.8953 8.8237 0.5877
11.9033 17.6364 3.6085
10.2034 9.6492 8.0983
14.2092 18.7334 14.1079
9.4500 19.2395 6.6146
14.9123 13.1697 15.2322
17.0415 4.5000 12.4250
8.0545 13.3394 19.5447
12.6966 0.2321 9.2910
14.2315 17.6644 13.0017
16.3214 0.3427 18.8646
14.5893 12.1289 18.1065
17.6936 2.0091 16.3124
15.3400 3.9908 14.8849
11.7245 3.8299 16.0838
2.7575 12.2465 8.6880
5.0738 11.3219 9.3417
4.0999 19.3356 1.4565
0.0607 9.7085 16.7438
13.1680 15.0934 9.7000
13.4960 6.6978 5.3389
10.0580 0.5506 1.5962
15.0792 3.4740 15.0051
15.6875 8.0898 13.4999
15.7484 17.2805 2.6974
3.2514 7.6333 9.2931
5.8964 0.2080 11.1484
19.3383 7.3292 10.7600
7.6466 8.8560 17.4099
6.1686 12.9813 9.6757
10.7714 18.2941 1.5343
16.4874 6.0834 12.9262
15.9168 13.0682 7.8593
16.8141 1.8590 12.6663
7.8225 10.6093 17.0188
15.9573 12.5768 6.1616
4.6583 9.1508 4.6422
5.5497 19.1551 2.2393
16.3723 7.5843 7.2921
6.3678 1.5477 9.1476
3.3299 8.8402 5.8397
17.8915 18.4348 8.8399
12.7924 18.5928 6.5245
1.9911 4.7568 3.7909
13.5694 7.4758 7.1220
15.9020 4.6634 16.1707
12.6581 8.0052 16.4704
6.8451 17.5716 18.5185
10.0521 13.7997 18.9756
14.8512 15.0201 17.3862
18.7114 15.0707 19.5814
5.8321 12.4497 13.4132
7.3487 7.9036 3.4955
19.1542 7.0801 9.5327
17.8713 3.7290 19.2134
2.5411 0.5606 7.0156
7.1835 18.3529 17.6639
15.2312 8.7286 10.8537
4.7354 16.6706 7.7982
5.6931 12.7561 3.0116
6.3270 18.5236 1.9009
2.8440 4.0869 5.0196
8.4080 5.0035 6.8538
4.9296 4.8018 12.2121
6.7292 7.4558 15.3563
1.2338 2.8808 17.0165
8.5955 15.5761 2.6559
10.4598 16.9075 6.7608
15.3636 12.2075 7.8915
19.9470 7.8461 9.4759
12.3897 6.3368 16.7528
11.9507 11.7600 10.7717
19.6987 19.7786 16.8158
9.0915 8.2358 10.4953
0.9231 2.1651 19.9052
2.5642 18.7477 13.5946
18.3018 1.5467 6.1162
15.9586 0.1769 2.1192
7.0128 3.4628 2.9372
13.3953 1.8385 19.4301
12.9872 0.9953 17.9744
4.8305 9.6293 11.1753
2.7727 10.0432 1.2062
3.9921 18.3715 16.4410
10.4577 13.6369 17.5101
2.7993 9.8421 2.6353
2.3304 2.1647 4.2357
1.0631 4.3043 7.5826
12.4538 17.1721 18.0837
14.3517 10.1418 18.3397
3.2599 2.1089 16.3562
12.5426 4.2063 7.5460
5.9479 8.6173 8.5546
7.9631 15.9548 16.2301
11.2493 9.4556 5.6892
15.3071 19.7377 4.5821
14.0618 13.9811 13.1646
0.6123 11.0345 4.0403
3.8869 11.5957 12.9018
12.5086 14.8440 14.0529
9.5030 0.9558 15.4445
16.4616 16.7095 11.9620
0.7634 3.9177 2.1669
12.7168 10.8856 3.7295
19.1165 19.5595 17.9855
9.2776 5.8359 4.1773
16.4823 14.0187 5.5468
18.0492 11.3787 8.2537
8.3091 14.4092 9.1072
13.1851 2.4407 14.0463
5.4448 18.2097 4.2879
6.6644 10.7602 7.8480
10.5091 18.4761 4.0231
15.4436 13.8660 15.7247
8.9534 9.0903 6.9170
9.4649 5.0916 3.8169
9.5221 3.8426 9.3870
11.4662 6.1892 3.4085
12.1015 17.2036 4.4450
12.3138 13.1737 17.6969
13.6431 6.1564 4.1461
16.7373 5.9834 0.2525
17.4090 3.9581 6.2617
6.3787 5.1180 14.4829
6.8568 8.8114 8.3870
16.6698 0.3651 11.5959
2.6371 3.0106 12.1374
7.5140 1.2970 11.7638
18.2874 12.9022 9.9105
16.0157 18.3176 3.0254
5.9863 19.2958 18.5192
4.0583 14.0728 17.4861
11.8265 14.0445 10.4797
4.6936 4.2612 1.2379
13.3128 2.7671 12.4290
7.8248 8.7223 19.4089
7.8362 9.4953 7.5986
4.3023 4.4816 10.6521
16.3484 1.8100 18.9128
13.4904 1.0765 14.1411
8.0305 10.2936 2.0196
10.2059 10.3985 15.6491
11.6176 14.0964 14.6907
4.4227 0.4953 9.5707
2.5865 2.8356 6.4336
10.7539 12.3149 12.9273
18.8530 2.0417 11.1591
1.7320 13.4004 8.7478
2.8033 6.2107 13.2105
9.4644 18.8881 7.1035
6.8014 18.4516 12.1195
2.1409 15.6841 7.2683
18.9497 12.7174 16.0980
17.9190 10.1867 19.3451
0.5116 6.8078 16.7557
0.1644 13.4493 19.9837
14.3067 17.2431 1.5346
10.8064 12.1924 8.7109
8.3882 15.8116 3.2519
0.8997 11.8615 19.3294
16.5426 13.4632 5.8952
18.0870 0.8042 4.9326
15.7615 17.8940 8.0568
18.1835 2.2172 11.9390
1.3520 4.6671 3.7984
0.1256 8.1062 10.0040
5.6204 13.0329 1.0486
10.3488 10.5548 8.0629
18.2963 2.5326 8.5378
9.1961 7.4561 19.4738
11.4371 10.3281 8.7997
8.7494 19.0199 15.9832
12.9513 3.2479 11.8904
2.5567 7.0191 0.4607
14.1035 19.5491 12.7568
11.3955 5.0082 8.8476
9.2885 8.4598 5.3883
4.3873 15.0135 19.0491
16.4252 12.4308 0.5581
6.0449 16.7999 19.4543
10.9570 11.3784 13.7275
4.9426 14.2425 7.3008
16.9412 9.2345 13.2679
11.1219 10.6938 9.2174
19.0441 15.0960 8.3964
10.1075 17.9569 14.9404
13.0614 19.1768 2.3434
11.9600 12.4845 9.0924
19.2639 19.3494 7.8113
12.3258 15.3145 13.9223
7.2549 15.9643 6.9760
2.9381 13.2914 12.9848
8.1700 9.9769 19.7586
16.1613 8.1400 18.2342
11.4068 8.0984 12.9369
15.6716 17.9257 13.4061
13.3482 8.0166 0.8055
9.0945 2.2862 18.8455
7.2490 12.1003 14.6632
3.5726 16.6703 6.5130
1.6090 11.9954 8.0468
18.3822 8.8936 1.8890
0.3688 0.6076 9.8693
14.2833 1.0250 6.5964
9.5681 17.9516 19.4117
17.5020 12.7776 11.5019
4.4590 12.2454 3.3188
6.0640 16.6039 11.3625
14.5240 9.3076 5.5878
10.0739 11.4636 4.8348
16.9085 19.6230 3.6241
4.8433 16.2273 14.4368
4.4992 11.7194 4.7629
17.2566 11.7488 10.2164
3.2326 8.1148 9.4590
7.2357 3.5976 3.9633
14.0044 18.4991 16.8791
12.3040 15.8200 2.6720
4.1996 14.0747 0.0290
1.6784 15.5763 3.9386
3.6977 7.9089 16.7365
0.2080 17.5496 6.0970
11.4206 9.4520 2.4340
19.1665 3.5170 16.0988
17.5791 9.0785 19.2037
1.2576 2.9557 9.6751
1.4942 16.1560 10.5316
15.9776 5.7297 0.5444
17.8065 4.1680 8.3400
2.5131 11.7370 9.2787
3.9613 0.7828 6.7538
15.6705 3.0793 4.5676
12.3726 12.7015 16.0874
12.9009 16.9963 3.1076
18.4407 0.5764 2.3796
2.0723 15.5005 10.0924
18.4282 19.4972 19.0448
12.2826 7.0269 19.1427
14.6517 3.9201 11.0627
0.4068 0.3494 12.7761
14.3876 17.2219 15.0645
2.7378 14.7597 19.6240
13.5365 9.6126 5.8985
1.2741 12.5073 19.2360
2.2974 16.4172 17.9547
7.0450 16.9171 3.1154
6.0131 11.3288 17.5900
10.7151 1.7862 18.5979
11.4319 15.5783 4.5957
6.6959 1.8042 3.7350
8.7411 8.2210 13.1356
16.6716 6.6833 18.5101
13.0630 6.8968 3.6955
19.1201 13.1355 0.8593
13.6920 7.5592 8.4212
15.3111 4.4628 5.3661
10.8055 18.0921 1.7221
16.6809 14.4103 3.5460
13.2347 12.4226 14.1937
10.7424 6.2736 10.0519
4.7552 9.1065 8.1217
2.1336 4.6414 6.8875
7.8734 11.2655 14.9352
5.1815 11.0937 6.7561
4.5332 2.7965 19.1963
18.6463 16.6170 3.4309
3.0202 2.0867 6.0093
8.5249 0.1480 8.4425
13.7847 16.6794 3.7974
0.0362 15.8990 7.6036
6.2740 3.0927 5.3675
5.3252 5.1383 4.6563
10.3493 16.2648 6.1796
8.3266 9.6713 16.8457
15.3297 19.7080 3.4639
16.1092 5.8919 11.5310
10.5424 11.4947 6.4372
1.4403 0.1575 18.5495
17.7290 9.2006 1.7957
16.7625 10.0336 9.4055
12.7792 3.1522 4.3708
16.2949 14.6919 19.6752
8.6671 19.4341 17.7812
10.1522 17.8428 3.2517
1.4068 16.2821 2.8281
10.3082 14.7385 13.5863
4.4015 15.7392 0.8515
11.2398 17.9538 10.9282
6.0512 19.9448 14.5376
15.8302 17.9223 18.6994
11.4809 16.4881 10.0379
5.1013 5.5639 5.2357
0.5109 12.3989 8.0055
18.2064 1.0219 15.6606
3.8991 6.4776 5.8514
19.1462 12.9182 9.3492
3.6851 0.9532 7.3482
19.4814 8.8885 13.5091
17.6081 0.9511 6.4185
8.3577 4.5228 7.6597
13.6300 2.6935 13.8869
5.9322 13.1445 3.4735
15.7867 8.3847 16.6476
19.3510 11.6253 0.4251
7.3223 19.5179 13.0415
15.1710 9.5239 18.8102
18.1394 12.2533 11.7943
2.0623 0.1459 4.1085
14.4146 16.9456 15.3949
17.7397 0.6097 0.5718
5.1056 0.3619 11.7199
18.5935 17.9782 2.1264
13.2832 13.4209 13.1478
8.2317 4.7289 17.7239
18.0730 14.3292 10.8745
0.6590 5.5323 4.7921
4.8540 4.3205 13.3608
13.5978 3.5191 18.0365
0.0111 19.1127 11.6603
12.9057 5.6302 13.8279
17.5280 4.1062 2.6356
15.7573 4.9854 2.1107
9.8377 3.7365 4.2700
5.6742 1.6902 16.3786
11.3069 13.0656 5.8403
15.5043 19.2201 19.9921
0.8496 6.2097 1.7907
9.4961 13.1503 12.1650
7.0899 19.2718 12.4752
19.9330 8.5112 12.8959
1.9840 10.7161 12.9286
4.6581 12.4850 2.6452
9.2296 12.1414 9.5962
3.0280 3.8038 7.4994
13.0409 8.6597 4.0164
6.7586 6.1707 2.7526
11.7807 9.4200 6.5106
0.0319 18.2782 0.9070
2.3025 5.8751 15.7863
18.7305 15.1827 4.1263
16.7855 0.6493 2.2449
2.2358 11.2661 11.8720
12.5346 18.9612 15.0453
14.8752 3.4586 18.2092
18.3788 16.5658 1.6151
14.2800 10.3885 10.7419
5.3565 15.4597 16.1340
15.3933 6.0393 14.7249
1.7283 13.6126 0.6095
0.1228 2.0855 13.0558
19.6752 9.3515 12.8884
11.7254 16.8270 19.3927
16.3570 6.6325 1.4375
17.8639 5.5799 15.1731
17.3003 3.3611 3.8793
8.4521 16.8832 17.0387
19.8586 5.4616 12.4573
17.4600 7.5320 11.7397
4.4916 17.1337 8.8543
9.7252 13.1190 6.3825
16.2570 9.1848 8.5909
14.5138 13.3355 14.1934
17.4988 16.1820 8.1514
12.8764 17.2748 1.1141
13.1844 10.5491 8.0628
2.3809 5.7631 14.9997
17.6862 19.7328 15.0898
17.6034 16.5226 3.2969
13.8078 17.3829 15.0406
5.5296 14.0008 7.7971
8.6525 14.6161 13.5221
2.7201 12.8161 1.1939
4.1396 16.4960 18.2584
5.0832 15.2882 3.6482
9.9599 6.9691 1.6805
8.6635 11.0397 17.0249
2.0561 5.7524 0.0814
4.1716 5.3278 16.4009
18.7740 4.3004 9.6464
10.4748 9.8161 19.1849
19.0017 0.7704 8.1616
10.5631 13.0000 10.6064
16.4034 1.9714 9.2237
16.6077 3.4138 3.4733
12.3299 2.9012 10.9063
2.4874 3.7370 6.6853
15.6621 12.2232 12.1664
12.5552 7.9350 19.5237
11.9048 12.5723 1.3456
4.9960 11.7178 19.1171
14.0711 1.0866 16.1554
4.2459 11.9085 3.8218
1.2285 15.4536 9.7171
12.0976 14.0957 11.8774
8.3302 6.4371 10.6013
4.9202 5.2473 16.2165
6.8440 14.4202 13.5902
9.3081 15.7098 6.6079
0.0725 16.9694 14.9882
14.7663 18.4013 8.1636
8.5246 12.2529 17.4437
5.6221 15.1684 19.1424
5.0856 0.3477 3.2436
12.9063 4.3229 18.9649
1.8440 17.8960 7.0797
18.4033 6.7795 2.2210
13.5082 5.9840 18.7979
16.4541 5.1261 9.8037
11.0076 15.4583 5.2785
11.3232 10.3747 11.7600
11.1097 8.6460 7.7427
7.9019 19.8876 10.4458
2.1298 7.8730 15.3203
13.6435 1.6151 8.2649
9.0377 16.9071 5.3477
18.3238 16.2755 0.3946
9.9489 10.6543 12.6199
17.7508 4.0344 16.5690
0.1787 16.6629 5.2359
0.5243 16.2579 19.4188
13.1535 15.5626 7.9410
4.9560 13.2908 16.1716
5.3701 7.5100 5.4115
5.2960 17.3250 0.1376
0.4390 3.6799 15.6951
11.4013 15.1467 13.9156
17.7642 11.7338 0.4365
2.0462 8.2354 2.3684
6.2014 5.4929 19.6678
19.2930 13.4588 8.4238
8.2602 1.4082 9.0554
2.8686 10.6427 16.3273
8.0166 14.1263 16.2895
18.2949 8.5397 4.7417
17.7926 9.9833 5.4594
13.6675 17.2670 19.6658
7.5324 5.2984 5.0037
5.9662 4.3508 18.3916
12.6845 1.0034 1.8799
3.7031 19.3669 6.8450
16.1265 4.4955 3.9126
18.8469 1.5096 10.0158
10.5867 6.7517 15.1229
17.0850 4.5857 6.0334
9.7252 9.5928 12.6474
15.4868 6.7835 18.8113
9.1265 0.5706 8.4379
10.5965 3.6596 17.5921
11.9318 10.4019 5.6896
2.6596 5.5154 12.8282
13.6564 13.6684 0.6392
15.5596 13.8986 13.6384
10.4571 17.0744 19.2496
11.6675 8.6457 10.8282
16.0224 13.5385 15.5227
6.1823 12.0399 4.7193
11.5433 0.2988 10.6746
14.5489 18.2158 9.7023
17.4527 4.0043 0.2339
11.0615 6.8723 7.9077
11.9780 15.1147 17.2463
6.4735 11.6477 12.5971
13.7041 11.6792 9.3043
16.1881 0.3982 15.7231
3.3419 3.6441 13.4354
9.0950 6.8468 1.5648
1.0273 5.3546 1.9274
13.9308 4.0179 7.6134
8.4221 14.0932 16.3285
12.6344 4.3450 2.7487
11.1884 7.3239 14.4973
4.3202 13.8122 7.1649
5.6034 3.6138 15.0876
10.0811 10.8778 16.6473
0.5386 10.9040 6.5728
4.8755 16.5691 4.8570
8.1885 8.6776 2.7614
6.1998 0.0749 10.0069
12.5598 19.9939 19.1859
6.6398 19.2646 2.0846
2.9742 10.5998 13.6535
11.8778 0.7267 8.1572
9.8484 7.7292 15.2232
14.8848 1.7287 9.3057
13.9349 15.7656 13.2608
19.5483 14.7987 7.8710
16.7001 12.2467 11.9489
11.8720 15.0525 14.1745
9.1657 15.7476 8.4221
14.8161 18.2872 10.5956
2.9617 18.1188 4.2544
4.2197 0.9118 8.3883
8.0214 16.3663 3.4418
7.5451 15.3937 0.4757
8.2587 2.9727 15.4092
5.9833 2.8222 2.2419
4.1798 14.0602 2.3176
0.7959 4.7867 0.8403
14.6187 15.1671 10.6513
6.6776 0.7807 14.3027
4.8491 10.9829 19.7583
4.8008 13.7583 8.7567
10.6747 8.0930 14.0386
10.4103 0.6484 16.3972
4.7749 7.0169 9.5871
11.8807 15.1456 2.3732
7.6598 12.4200 9.4139
4.8650 15.9177 19.2685
12.9044 10.6959 3.0935
9.5760 15.6972 6.3170
8.7505 8.9564 6.1847
12.3256 5.9257 18.4333
16.7687 6.1528 1.3318
0.4638 16.2705 8.4660
2.4012 0.9510 15.6130
4.1221 18.4138 7.1441
12.5571 6.9346 13.1060
2.8207 5.3470 2.4490
1.2645 11.2587 19.8316
0.1324 17.5688 5.7449
3.2030 0.6268 6.9998
1.7231 9.9056 9.1720
3.3444 17.6756 11.6709
15.1875 4.8078 14.4338
13.9022 15.4845 3.7114
18.9883 9.1240 1.6072
18.4386 6.1159 17.9152
4.1550 1.4504 10.2672
10.9735 13.4780 12.8197
7.2358 15.1974 10.3001
2.8940 11.6821 7.0431
10.9072 3.1653 5.0514
5.2946 13.2729 0.4715
8.3258 8.0354 17.4739
2.4562 10.2918 16.2059
8.1634 19.1211 5.0827
9.9007 6.1074 5.6305
1.4068 15.5393 13.0825
16.7276 9.5371 3.6435
13.2070 18.6868 11.1399
5.2617 10.4565 17.0739
16.3856 12.5399 14.8315
0.6370 2.7450 0.2207
9.0078 9.7934 0.3494
16.3946 10.9449 14.6294
19.3200 15.2877 14.9374
12.7646 10.4998 15.3569
15.6529 5.9708 16.0961
2.9836 10.6458 18.4065
4.3665 17.8200 9.6807
14.5927 3.0277 1.0237
5.0207 11.9109 17.8482
11.2913 10.4446 7.5959
10.0181 14.2755 17.3406
6.9272 13.4777 6.9350
5.0645 1.0989 8.0931
12.1820 10.1835 8.9626
15.3957 9.0646 13.8210
11.1168 18.9954 6.6579
8.8399 15.3557 5.9191
15.8920 6.4864 3.0756
10.9183 11.2158 6.1090
5.4622 19.9522 10.0792
14.2028 8.3977 11.0029
5.7179 3.3798 16.6588
13.6334 6.0848 8.1230
11.1971 1.2994 12.2974
19.8996 13.7008 9.3203
2.4119 10.7785 11.6310
13.9513 17.6506 5.3837
2.0990 19.3837 10.6867
17.7501 12.0859 18.0265
12.0338 14.5211 12.6851
19.0587 15.0205 19.4771
8.3221 4.1229 4.0244
9.1258 11.1299 13.7859
9.3010 19.2951 8.1063
0.1702 10.5505 13.1511
4.8394 14.8429 3.9319
18.0792 8.9180 19.0494
12.2710 14.4768 4.1119
17.6250 19.8038 2.9965
11.5845 3.2084 17.6088
17.2947 18.2311 15.3633
7.7534 12.6348 1.1744
2.1214 11.1044 14.8187
5.8800 0.2674 0.9015
6.5999 7.4430 18.1273
13.8045 17.6425 15.1101
14.0136 15.2674 4.4332
15.1646 11.6151 12.8848
9.9162 8.9509 16.8750
15.9938 3.8576 17.1901
10.7961 1.2490 15.7968
17.6027 8.6807 8.5891
5.4095 3.8808 10.6929
8.7470 13.0692 13.1586
3.8766 15.4003 9.0184
8.1446 3.6913 12.2111
13.5947 15.6443 16.4143
6.9855 10.9257 12.2902
7.7792 0.2003 14.5772
17.9869 9.4775 18.4324
1.0355 11.6809 7.9312
12.7766 7.2067 14.3771
4.0557 5.7352 8.2379
8.3551 8.3296 18.8549
10.2767 11.2225 2.5666
10.6284 15.2182 14.0573
19.1393 11.9287 7.4287
17.4162 19.5870 19.4269
2.2935 13.5262 3.1714
5.3239 15.5290 17.4723
11.8362 6.4022 9.7161
6.1614 5.3057 4.1015
18.9844 18.6465 3.7013
16.9365 14.9710 14.4968
5.0992 10.6342 16.3045
14.0212 18.6695 1.1074
6.6200 7.4122 8.3008
19.7216 19.3617 16.6372
13.1403 15.4871 16.9728
4.2792 12.5345 19.6720
3.3251 8.9051 7.3594
17.0833 9.2635 2.7612
7.4888 12.9272 10.9001
0.5482 16.3089 5.6821
0.7101 12.5027 13.4124
12.1429 1.8385 0.4141
14.4811 10.1683 0.2198
11.1992 1.6755 9.4644
14.1929 4.5056 8.1267
14.3911 5.5152 12.4147
1.1219 14.0810 4.7235
8.6487 19.8830 15.5571
3.6947 15.9608 7.9570
9.9115 5.5986 3.4758
19.7257 7.7923 4.1260
16.0479 2.1000 8.2622
2.3017 0.6902 19.6710
9.7725 13.0644 2.9437
7.2915 1.1872 16.8549
0.1547 18.7965 19.2280
3.9690 5.7453 3.5652
0.5079 9.5079 10.5129
17.6621 9.6497 3.4883
8.5811 3.1947 0.6717
7.7533 16.6457 1.6296
19.4747 16.8209 19.8816
11.9028 6.1636 15.4061
2.9718 10.4493 16.6428
10.7338 15.3001 3.5867
17.2320 3.0145 6.6615
11.8595 18.3497 2.3972
5.5901 15.4410 4.9411
7.8698 3.6089 19.8107
15.7448 7.5811 19.8883
17.7191 6.4104 1.5024
14.3336 12.7257 5.2936
0.1729 5.7275 18.6470
13.6246 13.3760 13.9432
5.4007 17.5942 9.4444
18.5400 12.2206 13.6241
17.4361 19.6280 14.2854
18.8850 8.2480 6.3089
5.2043 7.4053 17.8993
6.5385 4.9193 1.8262
14.3967 18.6506 8.4755
3.0687 15.2539 16.9714
8.1405 9.4642 7.4787
10.7081 13.2133 18.4972
6.6737 19.2590 12.2593
9.1684 16.8691 4.7818
10.9480 18.2277 16.6854
17.2134 10.5937 12.9011
15.6145 4.9087 19.2997
16.0083 9.7615 11.9722
18.9364 0.2727 5.4765
17.5560 0.9460 13.9593
5.9590 4.8894 0.9954
5.6960 7.3246 13.0605
16.2550 11.9808 3.0666
10.4884 18.5400 4.6981
13.9537 4.4131 6.0446
10.8612 16.6559 10.7652
3.8387 11.4850 1.0531
14.6495 11.1576 6.6711
12.5416 7.1352 9.8344
11.7295 15.9929 3.8385
19.2743 16.9758 3.7694
18.2140 5.3567 16.9254
4.2654 17.2347 17.2923
11.1840 13.5905 15.0952
12.7136 6.7039 15.3987
18.0684 10.7173 17.1886
7.2291 8.9591 13.6011
6.3647 15.7782 15.9192
4.1160 8.0149 17.6345
10.3168 0.7192 16.1704
3.6529 9.3626 18.0699
15.3001 14.8912 0.3376
4.9650 2.2989 19.6136
4.2824 3.2124 14.2616
