ply
format ascii 1.0
element vertex 400
property float x
property float y
property float z
end_header
95.745930 101.199708 101.418294
101.037363 100.959211 96.525346
98.756532 96.669296 100.865391
96.435337 97.584092 100.432233
97.478422 103.280916 97.163081
104.640497 97.851208 95.919096
97.787065 103.030178 101.326808
98.940602 99.779936 103.433731
102.329497 97.247412 103.510344
104.566505 100.228444 100.249309
104.207413 96.069483 98.679728
96.149675 95.540725 101.274920
96.856368 104.246244 96.095507
101.708255 99.035856 101.594684
100.467270 98.388840 104.233194
100.382571 96.755707 101.291258
100.410611 102.717387 102.260356
103.490617 104.274646 97.619383
100.846714 102.667131 99.124699
99.172268 104.010512 101.871973
102.378064 102.101885 97.233974
97.145218 101.741711 104.447645
99.942683 96.965058 95.937573
95.900038 104.587899 101.143593
99.377655 104.514518 99.950408
101.997231 95.261063 95.979303
104.644875 98.007417 104.470885
104.777577 96.954436 98.422028
104.622716 102.527130 99.212164
97.224000 95.948090 97.430816
99.554943 99.317389 103.700972
95.435085 95.466263 103.588679
96.045647 96.679118 102.282056
98.098129 103.931044 98.652029
101.535929 97.319918 103.277078
98.046225 97.119981 95.054393
96.815017 96.786499 101.263369
96.712437 97.302176 101.349237
96.747425 102.775016 97.652657
97.435653 99.579967 99.405425
102.251342 100.821283 101.174292
98.781066 103.966533 99.997562
97.724264 102.923691 96.681138
100.733457 98.870372 104.490087
100.611757 104.562893 96.164012
103.905809 95.335276 96.546901
99.512336 95.662266 95.167002
95.213928 97.145151 102.793322
96.635843 96.388464 96.006484
103.915446 98.123039 101.074338
101.246890 98.560914 103.701654
103.923244 104.351578 97.703507
96.094212 95.217853 96.321628
98.447276 101.090132 97.889550
98.300825 103.650901 99.379814
102.167123 98.094868 98.330130
95.179655 98.557779 96.905857
96.515485 104.495033 99.289620
98.994510 103.572383 103.004094
99.298305 96.114320 103.364859
97.823980 97.432511 102.877869
104.823663 98.146391 102.623989
97.457374 95.784193 96.830897
98.747354 101.090186 97.136331
104.794358 96.977251 98.423580
104.424269 97.348560 95.756318
104.680306 97.596094 104.164572
96.982400 102.516809 102.437950
100.275938 102.506672 98.954138
104.185166 103.946569 104.915102
102.275799 102.553968 96.188293
103.923942 101.070876 104.560212
101.763947 104.170497 100.235414
101.427904 100.534546 102.129946
100.628901 96.274492 97.513205
101.082808 98.131544 99.692362
98.142894 103.952913 103.053340
102.234515 104.618694 98.040132
104.154691 100.435808 100.756735
100.866560 99.583024 97.357867
96.474612 101.511112 101.039553
102.025989 101.515848 100.943910
104.867121 102.871812 100.335499
101.160603 101.235867 98.550514
101.809859 101.697922 97.252819
101.612762 95.014111 96.448550
101.389261 101.025123 97.382178
101.539262 99.508910 101.251648
97.108354 99.903040 101.972172
100.874984 101.913055 95.872293
97.362888 101.588644 104.524264
96.016956 96.262950 100.463903
103.703860 99.846546 100.875935
101.766314 101.747274 102.985143
104.086579 98.919949 104.292195
101.253037 101.877416 102.529864
100.348406 95.037507 104.816936
104.211405 95.347729 100.779578
98.798210 99.229496 101.640450
100.631934 95.816305 96.148460
100.529008 99.670229 95.282847
102.310292 103.107902 95.339098
103.171909 101.425357 98.198250
99.390960 95.098900 100.544700
98.292810 104.290314 98.319465
98.568666 102.467092 104.236911
102.243923 98.436095 103.238557
99.171271 99.206354 99.435967
102.517583 103.244498 101.767356
101.429132 102.743748 98.168340
100.619915 99.988020 100.153578
97.990499 104.749961 102.497476
95.124301 102.065285 101.628686
97.730626 99.366302 104.066327
96.314580 99.829790 98.712743
104.816525 97.878953 96.005518
96.261347 98.211652 95.975045
101.205040 99.141950 103.177934
97.409646 96.538522 104.888244
103.728324 99.114452 95.508750
99.074659 102.145506 97.904576
95.593175 95.499559 103.735077
95.839966 102.572737 100.197886
98.735799 98.804111 95.078707
97.461863 103.628899 100.060193
101.814588 98.756910 99.794927
97.773124 98.455107 103.810600
95.849726 101.781575 98.633805
102.916842 96.524039 99.536433
97.270152 104.879478 95.034132
98.877640 95.160041 103.809437
97.720250 100.964669 99.362978
96.707916 103.081673 100.397058
96.602114 97.128062 102.576331
96.465434 97.958346 104.535786
101.371887 100.759189 98.264982
95.215603 104.594266 100.526502
104.598485 97.579412 104.576712
95.581655 98.897712 102.912487
96.300128 97.502605 98.225847
97.722202 99.024756 101.746340
99.820233 103.210018 103.588900
103.056918 98.204775 101.664636
98.538003 100.266007 97.448046
98.500120 104.834391 102.995782
95.381089 98.315771 102.215856
104.631474 95.869964 100.980510
96.033209 95.099395 95.107007
102.444177 95.654789 99.714212
95.387705 98.699189 97.217894
103.257030 96.111406 100.960559
101.049267 100.845972 97.922868
101.188923 98.477823 99.686681
99.420351 101.651315 95.208808
98.130624 97.234751 98.661349
103.855533 101.615433 95.630845
102.520660 99.349781 97.040849
99.741063 104.008293 103.136864
100.602095 103.827211 102.652202
101.767032 97.015772 103.554510
98.378225 96.924423 100.607491
102.833495 102.859789 96.729354
96.859691 101.749709 96.716695
96.116007 103.392783 99.369408
100.501529 97.798549 98.828333
104.755750 100.030919 101.670841
96.674881 96.555891 96.345815
98.593197 96.995888 95.827821
103.549609 98.993144 102.282397
101.078345 96.035917 99.292655
96.997607 102.703341 97.456374
102.616474 99.458252 97.691705
98.451067 95.190860 95.375971
101.725036 99.351880 99.215282
95.520158 97.146802 102.499170
102.061688 100.210863 96.506721
101.891710 100.111443 103.360871
102.156313 101.275491 97.251498
96.805164 102.829871 95.336798
101.443201 96.080670 95.870278
103.036656 95.803603 104.865747
96.326412 98.252639 102.312260
104.574348 95.636605 96.143796
103.167749 101.418987 100.052290
100.880735 103.532002 98.807208
98.183828 95.812280 99.906854
102.823263 95.509604 103.930106
104.568703 99.956631 96.682334
96.524431 95.727530 101.023634
100.228469 98.412685 96.167982
99.834009 99.014308 97.228994
96.613526 95.118140 97.783106
104.857224 103.592511 101.211566
96.091770 99.195190 103.771856
104.589425 103.486490 101.853248
103.400036 96.684490 96.128839
96.423527 103.757889 97.850723
102.266980 103.234229 100.880776
96.077384 99.030719 100.246289
96.426715 97.533568 103.084317
97.294175 98.413393 97.290020
97.863479 99.940388 96.823602
95.846572 97.904887 96.713787
104.987830 101.245218 99.173604
96.317441 100.120440 102.360005
104.055781 99.314725 99.994439
99.114828 103.720010 96.600700
101.057748 97.029637 98.593283
101.607519 95.546330 97.836918
103.986829 103.337228 98.270490
96.941396 98.333755 101.010654
95.016612 97.964954 99.088176
101.011671 100.760436 96.301153
96.868859 102.712044 97.727577
96.435580 102.036684 101.851997
99.990043 101.357275 98.577085
103.668365 96.279564 96.664310
95.703900 103.298573 101.271551
96.853812 104.635367 98.794612
95.315521 104.192079 103.890064
104.557783 97.690646 101.276808
103.708308 99.800034 104.539926
104.493388 96.208467 103.088662
98.576110 103.479336 97.671810
101.244315 99.414154 104.819588
104.559313 102.058878 98.040999
100.293046 101.680634 95.252465
104.360616 104.088362 99.380557
102.707113 104.125246 96.236382
96.141240 104.310699 104.471626
96.774328 101.900739 98.619075
99.485526 96.462049 95.992930
96.168579 97.021910 95.866826
95.110801 99.813118 97.317760
100.323696 101.690975 98.540391
96.286148 96.814556 99.841935
95.229950 101.630010 102.365917
99.182831 98.190707 100.937326
99.813892 103.655831 95.229966
104.569405 102.326819 104.469715
97.496531 95.691434 101.281734
103.315262 104.575178 102.981319
98.380440 99.327393 100.748923
100.294241 98.133846 98.435659
97.914531 98.108476 101.128340
102.598914 99.193554 100.532268
100.524073 97.664889 101.820146
101.430432 98.339707 95.765520
102.002210 100.856268 99.276883
95.054840 96.165930 103.928135
103.546760 103.038358 99.044873
101.267375 101.130946 97.216408
95.026317 97.643277 95.845068
95.064114 98.330815 103.983145
99.804523 100.329835 96.283321
97.105463 100.452736 97.843598
102.623906 101.702405 96.916471
96.185589 99.664077 98.187137
103.956920 101.578844 102.165146
100.928308 104.647272 104.654603
100.208844 102.047658 102.701755
103.942484 96.456714 104.791034
103.763720 102.958597 96.819010
99.094072 98.302362 99.262515
99.027440 100.062824 95.181245
104.565550 98.784481 102.057082
99.582073 95.518584 96.219173
99.400794 95.922109 96.688529
104.176954 99.981102 95.858923
95.207710 102.602735 103.849290
96.487562 104.623261 99.711417
98.714949 100.356244 102.702260
96.751833 102.105549 98.548078
101.433663 102.686340 104.206498
104.140352 99.657532 99.111514
98.595351 98.629204 104.831881
102.206695 102.502910 103.558051
100.429911 102.273964 95.615793
98.770990 104.871508 98.029056
95.809712 104.670634 102.855768
98.690958 102.368798 101.029291
97.658687 103.003129 99.649981
98.532513 96.238810 103.445751
95.571864 96.025784 96.966052
98.717542 104.863686 95.595050
104.751370 103.066551 101.752868
97.911231 104.523881 99.542364
97.889944 95.123582 101.423150
99.053799 96.785356 95.095477
98.732275 99.023042 97.526969
102.309325 97.945133 100.620041
100.373318 98.537967 104.049674
101.907106 101.536953 99.397545
97.758558 95.628710 102.806618
98.538419 98.033810 97.152549
99.466087 95.559419 99.558375
100.302005 96.148634 98.076438
104.310171 104.485199 100.032324
100.899007 100.175253 102.133317
101.842211 99.522468 96.204938
100.248982 98.595531 103.923121
104.014204 102.391830 96.003312
101.663943 104.866128 95.501163
98.795226 104.291833 101.023487
103.350696 96.867797 99.456422
97.677013 97.296645 97.866071
97.983515 101.460262 103.624266
101.495545 101.597291 98.206028
95.781123 104.475527 99.619646
102.434967 99.071718 95.296503
101.509697 103.850402 99.539686
100.776960 95.468441 96.824863
102.616114 100.219997 98.122856
101.293898 104.202317 97.968928
97.182854 95.255788 103.085505
103.778482 104.672642 97.762460
98.717380 96.069590 98.935610
99.356047 95.570860 100.550973
97.697239 99.659894 101.049557
97.927277 104.715964 101.251623
100.997703 104.590695 95.970269
100.451213 102.658086 96.151604
99.650796 98.461464 103.305870
98.289359 98.309878 100.548619
98.054263 101.499637 103.355759
101.434367 99.029179 96.130612
96.191174 100.882933 98.745669
104.525877 96.540397 100.848083
103.778152 103.529210 102.903140
101.042827 99.830795 97.889957
100.229792 100.988505 98.705235
96.512392 99.868196 98.186783
104.537347 96.653146 100.863389
96.472804 100.168003 99.905893
104.995844 96.527880 96.315198
103.136811 98.253128 104.500017
103.913875 96.628172 96.530820
102.811664 102.128554 101.243117
98.350179 97.403481 104.638576
101.920806 104.026636 98.244164
101.066467 100.462258 104.942162
97.941698 104.799058 99.486415
104.767354 104.632482 96.114371
99.972145 104.250874 102.044246
96.476914 97.949643 103.989261
97.143847 104.661677 96.627733
101.256526 95.341520 102.949609
99.384846 104.635305 95.230349
97.960960 104.108263 104.386497
99.049422 96.468243 96.677460
102.171250 98.729813 97.723593
100.537289 100.500265 99.536741
103.099091 98.248323 102.365227
104.448993 95.186478 102.806300
99.701587 96.051462 104.003253
103.244819 101.864104 104.656203
101.763334 96.162363 101.304812
98.144411 102.966218 99.996373
100.275250 98.646392 104.619096
100.606831 102.838419 99.477234
100.983565 97.683757 98.533054
103.519503 97.178265 96.813159
99.108767 104.678039 104.274157
97.427114 99.232594 95.364452
98.082198 95.590174 99.557579
102.643955 103.265563 101.219337
98.932099 103.499157 95.383855
95.440611 100.303198 103.859917
97.007301 101.950896 104.893301
104.230400 95.336726 95.717369
103.824987 104.286339 101.892873
101.504842 102.131187 100.310764
100.361551 96.447407 95.208631
103.068026 99.528601 99.441056
95.063525 95.743747 95.853688
95.616823 97.666506 99.971885
96.445346 103.827123 103.928167
99.086231 103.814876 95.228933
99.838353 103.701213 98.989445
101.164175 98.573989 104.498213
98.194913 97.626405 101.788861
98.743953 100.868105 96.911987
99.855849 97.493286 104.746281
101.851997 102.741347 98.631227
95.983267 96.467051 98.339579
100.125397 96.131810 99.549526
103.584486 100.362188 100.532722
104.768540 95.679390 95.500315
96.427979 95.983417 100.476956
102.085090 98.419815 96.459847
100.418766 103.139730 98.293509
101.127325 98.837046 102.060200
99.123105 101.907878 100.391396
101.334390 103.542204 95.511502
98.151156 99.836361 100.032392
103.009552 103.225236 101.450842
100.358922 101.919579 96.257878
103.680087 103.389065 99.641713
100.246921 100.552471 98.857491
99.928525 97.518323 100.877497
