ply
format ascii 1.0
comment two clusters
element vertex 1500
property float x
property float y
property float z
end_header
0.613803 1.356614 0.132364
-0.490050 -1.025518 2.042461
0.906876 0.399711 -0.165981
1.611879 -0.159624 -1.712117
0.265026 -1.227806 0.268761
1.344134 -1.672509 -0.899634
0.864727 -0.499471 0.415164
0.417314 0.889570 -0.646592
-2.551829 0.396865 -1.569004
0.935177 -0.042264 -0.296031
0.690556 -1.741844 -0.200207
0.447874 0.252844 -0.488830
-0.478734 1.543242 0.912672
-0.664173 1.348461 0.755081
0.488390 0.526590 -1.146121
1.505264 0.951508 0.245123
0.243607 -0.091475 -0.568709
0.534548 -0.795407 0.150699
0.097365 0.385182 0.941250
0.403337 0.693566 -1.939943
0.460413 0.075057 0.371725
-0.529080 1.150925 0.250430
-0.744815 -0.568315 0.902774
-0.085289 -0.004716 -0.197713
1.011131 0.482330 -1.187134
-0.975771 0.004568 -0.643042
-2.160531 -0.745026 -0.278523
-0.400002 0.720762 -2.234540
-0.772365 0.795663 -0.667662
-1.211391 -0.680700 0.446207
-0.253404 -0.724959 0.481780
0.374868 -1.263498 0.094786
-1.299485 1.170091 1.231197
-0.287674 1.064962 -0.756214
-0.139884 -0.584789 -0.024687
0.066245 -0.002663 -0.090184
0.127287 1.255390 -2.010876
1.920921 -0.350778 -0.077905
1.329301 0.606689 0.535019
1.245631 -0.164757 0.919016
-1.260486 0.417524 0.561817
1.146050 0.707832 0.204485
-0.317610 -0.328742 -0.320281
-1.297879 1.743430 0.998675
0.254500 0.814937 0.753053
-0.992977 0.636751 1.269746
-0.677895 -1.533701 -1.162043
-0.096343 -1.219752 -0.172005
-0.654715 -0.000799 -0.509663
-0.035980 0.602516 -0.958059
0.281339 -0.852253 -0.005752
-0.081856 0.355580 0.184627
1.238881 -0.026062 -0.627504
0.929726 0.330984 0.884147
-0.119968 -1.308699 2.243912
-0.602644 -1.160923 0.716989
-0.945151 -0.392404 0.124573
-0.143319 -0.363413 1.589689
-0.111464 -0.899426 0.976953
-0.722538 -0.109067 -0.904627
0.211434 0.039780 -0.029009
0.150018 0.817801 0.703094
-1.039407 -0.674653 0.924373
-0.782830 0.491897 0.839483
-1.641580 -0.406339 0.815034
-0.146974 -0.404175 0.831115
1.103906 -0.678410 1.767131
-1.784217 -1.507113 -0.454380
-0.334529 -0.288765 -0.534505
-0.725611 -0.220312 -0.589846
0.681928 0.030614 -0.221163
-0.072119 1.114161 -0.483407
-1.273391 -0.977365 -0.233021
0.481503 0.879808 1.648638
0.739155 -0.882948 -0.203226
-2.163660 -0.311540 -0.605107
-2.313025 2.107536 -0.377984
-2.107210 -0.274140 1.650770
1.907099 0.058371 0.096378
1.225593 -0.150512 0.460284
0.839590 -1.075936 1.536767
-0.879688 -0.633792 0.099822
0.939601 0.677405 -0.049400
0.284170 1.073290 0.008393
-0.812055 -0.602928 0.909281
-0.811237 -1.567844 -0.304189
-0.075347 0.860498 -1.457776
0.346472 1.151259 -0.817345
0.081644 -2.150592 0.873164
0.795596 -0.019978 -1.327281
0.666883 -0.244998 -2.780382
0.778212 1.163616 1.339306
-1.277003 -1.916794 -0.410385
0.517865 -0.942791 -1.591034
0.724570 -0.345207 0.622589
0.015797 -0.166105 -0.064136
-0.358445 -0.458542 -1.101281
0.483349 1.247537 -0.500479
1.866100 0.376578 0.258175
0.655018 0.975108 -0.454574
0.554823 1.046635 -0.379377
0.004739 -0.767258 -0.493048
-0.349691 -0.904197 -0.062947
0.330829 0.427950 -0.808471
-0.606322 0.850917 -0.608727
0.824191 -0.732464 0.376996
0.752352 -2.649686 0.868467
1.304071 -0.308914 0.345738
-0.839122 0.363481 2.461050
-2.196736 -0.500712 0.796754
1.261583 -1.382422 -0.638191
-0.580318 -0.652996 -0.116175
-1.428691 -0.254525 -0.936149
-0.068855 -0.705130 -0.169037
-1.036437 0.952701 -0.325597
0.013828 -0.145819 0.007232
0.002193 0.805138 -0.286067
-0.719794 0.041715 -0.612904
-0.074914 -1.052027 1.049782
-0.780533 1.199404 -0.061126
0.856153 -0.767312 -1.966845
-1.648810 2.502902 -0.597940
1.096158 -1.297756 0.178855
0.348407 2.836412 -0.317859
-0.711268 0.350934 -0.924763
0.409577 -0.053488 -0.753818
0.494384 0.108321 0.760320
1.652453 -0.501643 -0.411508
-1.345647 0.521030 -0.644752
0.345528 1.165473 -0.684398
-0.474283 1.014513 0.707423
0.601484 -0.391387 -1.436070
-0.711834 -1.009481 0.581546
0.284522 -0.598617 -0.427876
0.475650 -0.319331 -0.581147
1.978591 -0.549624 0.668640
0.392576 -1.523256 -0.678994
0.819122 -0.131483 -1.464940
0.394488 -0.582305 0.435892
2.687775 0.382439 0.612173
-0.253995 -1.119588 1.023925
-0.605839 -0.229182 1.793476
-0.337708 1.215328 0.387478
-0.553091 0.341407 -0.716421
0.904725 1.247094 0.049007
1.342476 0.160074 0.914513
2.951197 2.475116 -0.182552
0.293505 -1.053956 0.798646
0.389217 -0.774019 1.186848
-0.265610 -0.520908 0.399496
-0.465073 -0.031680 1.746251
-0.614685 0.675409 -0.583499
-0.973192 -0.081549 2.684427
0.781626 0.462053 -0.524552
-0.384583 -1.483477 1.795036
0.268911 0.181949 0.203848
2.090149 0.299501 -0.192533
1.799112 -0.129655 -1.691584
-1.527006 -0.191710 0.291639
0.821946 -0.918302 -0.225259
-0.809650 1.113714 1.282420
1.958262 0.351535 1.865296
-0.692903 0.215942 -1.060819
0.573334 0.284744 -2.453847
1.109607 0.855350 -0.555642
0.281218 -1.493742 -0.770221
1.669079 -1.154346 0.009546
-1.396361 0.337945 0.562745
0.724130 0.467984 1.426836
-0.554028 -1.058274 -0.587173
-1.346231 0.078780 -0.139622
0.477537 -1.616241 -0.013012
1.214481 0.572229 -1.895536
-0.011709 -0.732775 0.012862
-0.380653 1.739296 0.085713
0.316759 -0.044064 0.474451
-0.216885 0.773518 -0.391925
1.376453 0.496447 -0.152557
0.842092 0.493030 0.827315
0.085744 -0.241188 0.135276
-0.500377 0.979329 1.469187
0.579038 1.418158 1.126865
-0.268252 0.835793 -1.282966
0.186069 -1.182354 -0.109656
-1.439695 1.094304 -0.394884
0.906323 -0.075521 -1.844205
-0.484162 -0.530712 -0.014777
1.508035 1.673617 -0.231232
-1.260279 -0.744109 0.479609
-0.108242 -1.575322 -0.503593
1.311574 0.292256 0.047291
-0.388794 -0.459958 0.543961
0.142061 0.771016 0.546647
0.019720 0.384210 -0.592532
-0.048169 1.340950 0.010710
-0.217191 0.210484 -1.165570
0.220848 1.696044 -0.808614
0.267055 -0.023494 -0.049087
-0.067128 0.714309 -1.098121
0.688674 0.069134 -1.762723
0.379838 0.113920 -0.871754
0.160572 -1.316265 -0.684704
0.036976 -1.685617 -1.151385
-1.001882 0.079172 0.441339
-0.892802 -0.948931 0.138112
0.111150 -0.700239 1.828720
0.184391 -0.170165 -0.386090
1.008832 0.545044 -1.737644
-0.695811 -0.446786 -0.011951
0.627135 -1.070152 -0.079407
1.699267 0.029060 -0.694295
-1.334212 -0.486902 -1.078748
-0.394600 0.542184 0.036959
-0.480015 -1.790683 0.831995
-0.352482 0.107987 -0.911736
-0.408956 -0.579915 -1.333919
-0.907965 -0.014707 0.298573
-0.683934 -1.202699 -0.356438
0.779629 -0.939153 0.012882
-0.660439 1.128510 -0.506606
0.662006 1.015068 1.541481
-1.353312 -1.398110 1.165219
1.001484 -0.616927 -3.236994
0.080887 -1.517498 -0.827699
0.181192 0.315643 1.581315
-0.372737 -0.976303 0.917292
0.377071 -0.363132 0.031760
-0.378034 0.692036 1.687939
-0.725490 0.420891 -1.529757
-1.072560 0.562558 -0.070401
-1.109166 0.008762 0.878913
-1.446927 1.746536 0.573028
0.592963 -0.001345 1.747128
0.962323 -0.367576 0.757390
-0.733141 -0.280248 1.466634
0.387583 0.661524 1.169625
0.548223 -0.811178 1.661281
0.516147 0.586797 0.055876
1.110760 1.914956 -0.375343
1.065415 0.034373 -1.998107
-1.404055 0.424291 1.010355
0.609075 0.769099 2.589606
0.528383 -0.264922 -0.126645
1.635002 -1.269189 1.237960
0.016168 -0.831579 -1.450149
1.480594 -0.857362 0.062362
-0.974750 1.965860 0.098173
-1.346379 -0.428816 1.393135
-0.976832 -0.361431 1.187152
0.342291 -1.219458 0.223352
-0.152750 0.052415 0.946558
0.240585 -0.092782 -0.141910
1.076804 -0.720346 -2.167907
-0.225295 0.378264 -0.416362
-0.525347 -0.364248 -0.024556
-1.298293 0.661383 -2.662336
0.540007 0.313300 0.497026
-1.928427 0.292830 -0.542501
1.602190 0.361721 -1.176729
-1.690507 -0.614771 0.811561
1.152456 0.181398 0.080031
-0.332046 -0.021355 1.215724
-0.346622 0.658801 -0.528418
1.013274 0.578723 0.972119
1.882119 -2.581986 0.753770
0.469127 0.447498 0.240591
0.239882 0.336367 0.905995
0.826296 -0.024959 -0.187476
0.020154 -0.412876 1.780235
-1.270764 0.749790 0.743840
-0.530392 0.296051 1.262959
-0.330026 1.311935 1.118235
-0.709860 -1.108061 0.165432
-1.240298 -2.904702 -0.489412
2.174252 -0.447156 0.379503
0.699990 -0.041176 -0.333623
1.228717 0.039916 -0.091386
0.797493 -1.029563 -1.263112
-1.624906 0.568012 -0.163663
0.826358 0.050911 -1.370957
-0.355613 0.896796 -0.262170
1.186815 -0.453570 0.719358
-1.782590 -0.226446 -0.387069
-1.397870 1.111921 -0.640066
-0.743278 1.301299 0.161450
0.779802 -1.702706 -0.798542
2.086389 0.854047 -1.073334
0.225031 -0.995650 1.393835
-2.269748 0.275297 0.260281
-1.112630 -0.273152 0.375543
-1.778126 -1.279557 -0.155107
-0.833060 -0.463130 -0.020076
-0.910460 -0.026577 0.297998
0.778868 -1.245828 -0.628404
0.588542 -1.482090 0.106190
0.028098 -2.586838 -0.494346
0.330782 -0.211851 -0.474283
0.156173 0.988895 0.537589
-0.755853 -1.458990 0.519467
-1.177739 -0.528034 0.200945
1.146526 1.285814 0.060686
-0.509492 -1.200642 1.958630
-0.289886 0.677829 0.196780
-0.495602 -0.537956 -1.383125
1.122425 -0.120531 1.429573
-0.448768 -0.298021 -1.133264
-0.311441 -1.240119 0.402661
0.107809 1.474876 -1.457756
1.216002 -0.978444 0.344232
-1.145439 0.202774 -2.510596
-0.670582 0.106099 1.755447
-2.128015 -0.002278 -0.518745
-1.916053 -1.124828 -0.471111
0.467077 0.087898 -1.312484
-1.834035 0.417649 -0.195267
1.611425 -0.352556 1.143231
0.543838 0.821607 0.432412
0.454332 -2.291857 -0.236913
-0.663618 1.270654 -1.001675
-0.280280 0.800866 0.300965
0.167307 1.109197 0.260083
-0.544934 -1.296269 0.486702
-0.770104 -0.241139 1.078357
-0.221274 -0.444234 -0.279615
-0.252625 -0.991199 1.677358
-0.549319 0.784387 -1.018459
0.549526 0.169356 0.025032
0.174937 0.415959 -0.226902
-0.177026 0.577436 -1.141954
-1.296299 0.178946 -2.009775
-1.682840 1.805247 1.549396
-0.570762 0.999179 1.033800
0.471091 -0.078925 0.626448
0.797988 0.642109 -1.549334
2.033068 2.403328 -1.909195
0.510967 2.045722 1.002282
1.012933 -1.438518 0.791095
0.239197 0.779852 -1.035527
-1.071491 -0.142559 -0.379187
-0.157437 -0.479531 -0.201017
-0.666098 -0.048276 -1.423563
0.514105 0.260544 -1.261828
1.326359 -0.826850 1.188951
0.329424 1.000563 0.176189
0.566838 0.989604 1.907190
1.074625 0.448229 -1.348513
-2.415834 -0.130411 -0.714482
-0.677724 -0.082432 0.662794
-0.620896 0.895192 0.033493
0.037612 1.874996 0.178110
-0.054142 0.523902 1.797145
-0.046744 0.439758 -0.108286
-0.103041 -0.490092 -0.560084
1.696058 -0.553833 -1.540641
0.125407 1.017817 1.242516
-1.194465 1.112756 2.058939
-0.684154 -0.174066 -1.231555
1.853700 -1.492386 -0.399788
0.784689 -0.684013 -0.989116
-0.052241 2.390156 -0.256001
-0.207072 -1.115559 0.385095
0.883723 -0.606304 0.535732
-0.598528 -1.893721 0.457365
2.074383 -1.195896 0.179380
1.309755 -0.101986 -1.426834
0.044958 1.490360 -0.506534
0.232243 -1.053528 -0.099473
0.386692 0.125853 -0.431497
0.442993 0.669498 0.735599
-0.292929 -0.621009 1.963119
0.137624 -0.257487 -1.477082
-0.932481 -0.642318 0.439414
-0.356227 0.015197 -1.433250
1.404429 -0.737490 0.235123
-0.530560 -0.318132 -0.794046
0.296303 -0.980342 0.314255
-0.118825 0.630020 0.728681
-0.317580 0.366031 -0.448282
1.316078 -0.358980 -0.201777
-0.468809 -0.733076 2.033698
0.486412 0.068087 -0.476221
1.113112 -0.545641 0.120779
2.202952 -0.957253 0.539574
0.288545 0.528159 -0.284904
-0.592256 0.226493 -0.456029
-2.331638 -0.824466 -0.316667
-1.077849 0.150987 -0.757596
-0.043439 2.167873 1.227003
0.591492 1.809229 -0.072586
-0.062408 -1.055596 1.278155
1.956993 0.907410 1.423386
-2.737337 2.339696 -0.104343
2.355968 1.731650 0.772425
-0.343035 0.158239 -1.910025
0.930799 -2.555005 -0.298689
1.543237 0.720725 -1.529915
-1.340305 -0.597436 0.078376
0.876551 0.604138 -1.058754
0.618733 0.725337 0.488520
2.478185 0.726319 0.967823
1.875858 0.850117 -0.551056
1.242703 -0.401394 -0.982608
-0.896978 1.231349 0.620246
1.060836 0.625091 0.188847
0.318011 0.591078 -0.602490
-1.290300 -0.485115 0.544123
-0.647837 2.129617 0.441263
0.119487 -0.606337 0.915737
-1.211942 0.315771 -0.435530
0.120930 0.486273 -1.145662
-1.670932 -0.931653 0.879242
0.373133 -0.402901 1.968147
1.285098 1.043462 -0.724205
1.032348 0.340708 -0.722265
-0.104101 -1.038435 -0.713485
-1.144176 0.956554 -0.070926
-0.941599 0.517374 0.001503
1.050505 0.133337 -1.437188
-0.496744 -1.157195 0.563008
1.084461 -1.543981 -0.124496
1.152751 -1.559103 -0.435016
-0.000230 1.067444 0.544689
0.749035 0.602460 -0.373131
1.643407 -0.670909 -2.778411
-1.800541 -0.116891 -0.331545
-0.536365 0.150204 1.200428
0.454028 0.648550 -1.079788
-0.519449 0.700356 0.108012
0.477062 0.613724 0.166190
1.581906 -0.531536 -0.819092
-1.764969 0.748603 -0.570054
1.266006 0.247952 -0.338833
-1.054638 0.846512 -0.053887
0.267802 0.604441 0.265753
-0.849818 0.521268 0.820201
0.360229 0.632348 0.725544
-0.396063 -0.433557 2.226787
1.325760 -0.048206 0.682829
-0.937685 -0.598881 -1.246910
0.285661 0.297365 1.083826
-0.212034 1.066588 0.652913
2.459231 1.667116 1.492157
0.835683 -0.894225 0.292794
2.247555 0.506955 -0.821779
0.335969 -0.989605 -0.856194
0.412899 0.739546 -0.797922
-0.559556 -1.426375 -0.129294
-1.946027 -0.299145 0.079577
-1.755789 -1.007258 -0.060092
-0.196577 -0.150363 0.288013
-1.671683 0.708660 -0.318727
-0.596197 -1.864855 -0.267577
0.512030 0.141572 0.170813
-0.339044 -0.060549 -1.107461
-0.004766 -0.491102 -1.124799
0.754719 -1.575000 0.524286
0.587148 -0.527239 1.030409
-0.548340 -0.611156 -1.200355
-0.008443 -0.958658 -0.791646
-0.065374 -0.023507 1.255934
0.931033 0.550992 -0.146550
-0.404016 -0.026593 -0.556282
-0.700930 -0.078793 -0.878384
-0.816925 0.954874 -1.379679
-1.039778 1.273274 -0.392139
1.376026 -1.167365 0.073782
0.771827 -0.905972 1.674333
-0.390350 0.509090 -0.678055
1.491614 0.303360 2.097280
1.179072 0.837033 -0.955117
0.083854 -0.316677 0.026227
0.147721 -0.900697 -0.156562
-0.096389 -1.010228 0.800417
0.222485 0.813253 0.487219
-1.713625 -0.833305 1.653211
0.785089 -1.621639 0.470011
-0.831915 -2.096489 1.657209
0.075326 0.216978 -1.256771
-1.153137 -1.591637 1.416976
-1.643329 1.616785 -0.986764
-1.227879 -0.055372 -0.684209
0.097296 -0.877157 -0.313483
-0.758393 0.861226 0.512623
0.247719 1.053547 0.263180
0.178799 -0.119954 -0.716248
-0.714042 0.147121 1.017907
0.570364 0.564618 -1.106156
0.522832 -0.399207 0.175737
0.552015 -1.156207 0.157404
0.236262 0.998635 -0.516875
-0.061214 0.169964 -0.516786
-0.535048 -0.573643 -0.127723
1.747087 -0.092075 0.487540
0.031593 -0.307526 -0.024198
0.769346 -0.053467 -0.160935
-0.234773 -0.993480 1.040090
-0.446936 1.469410 0.244706
1.405885 -0.199943 -0.733178
1.043228 -0.561014 1.285537
0.578714 1.464463 -0.976472
0.956511 -0.742747 -2.396425
0.895917 -0.006402 0.962414
0.092013 0.021475 1.497703
0.118294 -0.475500 -0.088375
0.157639 -2.844653 0.491105
1.358905 -0.048989 -0.420758
0.387768 1.743547 0.469195
0.214374 -0.390579 -1.069496
0.023408 0.041577 -1.932097
-0.726784 1.158861 -0.258070
-2.455826 1.601175 -0.891509
-0.470267 1.062254 -0.742073
-1.969961 0.217566 0.796842
-0.469111 -0.122844 -1.179796
-0.995464 -0.321677 0.648612
0.097775 1.020049 1.653611
0.886572 -1.589963 -0.283778
0.876996 -0.119545 -1.619341
-0.551979 -2.272452 -0.277496
-0.684921 -0.360646 1.181475
-1.331401 -0.718216 -1.141762
1.071336 1.131237 0.360075
0.308290 -1.200338 0.199189
-1.121910 0.041194 -0.343349
-0.594167 0.028302 0.677262
1.775457 0.550985 2.277990
0.200925 1.783887 0.435584
0.239790 -0.168228 0.299101
0.431578 -1.417453 0.700054
-1.483994 0.701171 0.598953
1.421248 -0.862102 -0.987103
1.107259 -1.074839 -1.173233
0.208618 -0.046692 0.155355
0.537727 0.543310 -0.077873
0.048153 -0.066985 0.035274
-1.387449 0.756390 1.049033
0.637429 0.560503 -0.990601
-1.415258 0.830893 0.028568
0.169532 0.214492 0.257053
0.646541 -0.095428 -1.905093
0.688406 0.577547 -1.294645
-1.166047 0.882991 1.119074
-2.663641 0.440843 -0.220646
0.074164 0.131278 -0.762143
0.652670 -0.688149 0.747013
0.969029 -0.872159 -0.847719
0.113656 1.503657 -0.592709
-0.403196 0.321072 0.656780
0.526967 0.032294 -0.305519
0.331823 -3.200570 1.869254
-0.185806 0.182298 2.099380
-0.741311 2.332118 0.739661
0.446540 0.643899 -0.841485
-1.648957 -1.180464 1.087416
-0.935572 -1.654098 -0.079317
0.574702 0.038651 0.606387
1.155013 0.571279 -0.154053
-0.544318 0.770805 0.275314
-0.860767 1.302182 0.262163
0.652913 -0.392019 1.130715
-1.585358 1.675497 -1.938839
-1.376622 0.251830 -0.530756
-0.328332 -0.531090 -0.783075
0.316977 -0.048562 0.884834
0.080172 -0.416816 0.774468
-1.832238 -2.581739 -1.587822
-0.343522 0.391468 -2.671179
-0.011610 -0.354578 0.136962
-1.907582 2.615267 0.032507
-1.217179 0.129441 1.494840
-1.286649 -1.494803 -0.118040
-0.032703 0.709405 1.475293
0.780001 -1.387687 -1.071042
-0.798301 0.777675 0.606706
1.261537 0.558114 -0.627471
-0.196801 -1.461422 0.628144
-0.626060 1.224298 0.600297
1.938000 0.419796 0.401073
-0.182518 -0.384576 -0.258652
0.999148 -1.348610 0.063327
-1.666331 0.372975 -0.458530
0.503622 -0.742498 -0.256978
0.632356 0.125881 1.542793
-0.481546 -0.567988 1.236792
-0.367187 -0.413218 0.383102
-0.163854 -0.311545 -0.692996
1.362325 -0.150643 -0.562148
-0.296884 0.354921 1.461284
-0.169119 -0.862794 1.918869
0.135551 -0.105927 0.071835
-1.245460 -0.045406 0.759608
1.220120 -0.358210 0.187953
1.237974 0.037529 0.719475
0.424311 -0.664276 -0.916135
1.059321 -2.674633 -0.668623
-1.395300 1.060794 1.364781
-0.724333 2.764903 1.377217
0.197155 1.499990 -0.641728
-0.276591 0.463210 -0.692052
-1.284310 -0.937992 -0.196684
0.469315 -0.337890 -1.639842
0.470321 1.273374 -0.659945
1.662791 0.868873 -1.054158
-0.647909 -0.312980 -0.185277
-2.438380 -0.753159 -0.553634
1.890560 0.226926 -0.798015
-0.438531 0.425088 -0.377954
-0.585346 -0.553209 0.479730
-1.381715 -1.086899 -0.927645
-1.104094 -0.823634 0.896862
1.036356 0.271707 0.214813
-0.669982 -2.081093 0.143852
0.297736 -0.673675 -1.076072
-1.273416 0.167636 0.081904
1.194556 -0.805443 -0.287935
0.017201 -0.549859 0.839016
1.238146 -1.105567 -0.458083
1.324555 0.323164 0.117212
0.341240 0.655889 0.389164
0.213595 0.009575 1.348224
-0.266284 0.001237 1.551994
0.325727 -0.066586 0.630747
0.227290 -0.739115 0.245102
-0.808767 1.826772 0.238777
-0.938207 -0.392631 0.759578
-1.091129 2.720464 -1.455253
0.925655 -0.486609 -0.808866
0.537732 -0.453957 1.591553
-1.401292 0.562278 -0.275223
0.296279 0.514095 -1.731619
0.234007 1.089053 0.466387
-0.368770 -1.413805 0.507950
1.876107 0.661869 1.157719
0.933017 -0.393079 0.090488
0.868523 -1.579720 0.651743
1.258918 -0.051359 0.814020
-0.554372 0.038234 -0.273112
0.459813 -0.104526 -1.676179
-0.718127 1.942509 0.567535
-2.097921 1.207819 -1.152821
0.893375 1.292234 0.101690
-0.996893 -0.715164 0.629258
-1.135484 -0.581893 0.512894
-0.651175 1.420781 -1.038079
-3.288157 -0.778221 0.310123
0.863330 -0.408389 -0.277230
-0.030886 1.741912 0.378759
-0.492773 2.051765 0.011208
-2.075317 -1.386827 0.558237
-1.777227 0.498051 -0.779968
1.177716 0.167513 -1.637022
0.914223 1.363598 -1.276833
-0.802789 0.502384 0.681715
2.353246 0.890909 2.400784
0.019411 0.383627 -0.568129
-0.522603 0.147100 -0.582504
-2.564086 -0.666801 1.076694
0.072809 0.078409 -0.763445
0.332950 1.658658 1.400706
0.365869 -0.853724 1.767198
1.059243 -1.480844 -1.756794
-1.425431 -0.493668 0.901783
0.877951 0.340720 -0.140454
2.371308 0.033988 -0.086985
-0.507579 2.211993 0.720900
-1.034488 -1.152963 -1.680037
-0.096770 -1.498477 -1.167603
1.068341 0.890996 1.491402
-1.470320 -1.002320 -0.628565
1.640085 0.062882 1.822025
0.627444 -0.112421 0.573838
-1.729381 -2.054237 0.259258
0.014402 1.933618 -1.378950
0.372452 0.695279 0.342813
1.098946 -0.632372 0.832232
0.561525 1.165854 -0.511164
-1.186203 -0.628556 -1.063058
-0.564978 -0.334283 -0.911391
0.007774 -1.179017 -0.073200
-0.495222 -0.121231 0.393358
-0.418231 -0.777963 -0.654529
1.023123 1.276315 -0.514899
-0.154533 -1.704399 -0.181941
-1.451555 -0.488337 1.077372
-1.501900 -0.902011 -0.897097
-1.668853 0.862705 0.277238
1.808854 -0.995318 -1.772151
0.941319 -0.360838 -0.466624
1.478026 0.169762 0.904196
-0.622647 -0.725145 -0.365373
0.670367 0.050900 0.467961
-2.603233 -1.881968 -2.153679
-0.379294 -1.397660 1.689655
-0.021385 0.216688 -1.089792
-1.120988 1.551239 1.782412
0.415822 -2.031748 -0.425478
0.313267 -0.227966 -2.120166
1.849516 -0.835494 -1.341149
-0.030876 1.184253 0.513016
-1.315641 -1.480594 -2.191579
-0.291605 -0.473091 0.513871
-0.685510 0.973707 0.654684
-0.728882 0.391175 1.328972
-0.960706 -0.213328 -0.232788
-0.357715 0.801896 0.881083
0.406673 0.358935 -0.562208
0.330528 -1.285170 2.478542
1.350266 0.956537 0.408337
0.409182 -1.690121 -1.258612
-1.133970 0.058351 -0.281521
0.811328 -0.965548 1.026613
-0.820380 -0.417964 0.895445
0.504655 -1.251456 1.064061
0.088986 -2.142207 -0.842682
-0.409627 -1.169338 1.342713
-0.374759 0.460183 0.206588
0.705745 1.673051 0.675701
1.742614 0.702252 0.131532
0.321456 -2.625369 -0.455155
-0.143583 0.438054 -0.025510
0.333876 -1.323190 -1.581343
-1.183132 1.571194 -1.267899
-0.788605 0.105153 -1.591623
-0.872345 0.676782 -0.438042
1.683486 -1.698556 -0.345603
-0.437778 -0.008934 -1.226764
-0.580478 0.789123 -0.269401
-1.069728 2.080050 0.049100
0.613344 0.764144 -0.070758
-0.789744 0.199198 -0.700112
0.371569 -0.164240 1.029415
-1.141500 0.718517 0.613780
-0.239023 0.730196 0.418893
0.667152 0.603516 0.050120
-0.596204 -0.607755 -0.214646
0.843143 0.632249 1.005981
1.106278 -0.216993 1.962422
-0.103980 -0.493896 0.333333
0.483712 -0.741560 -0.158652
-0.446971 0.141543 0.795859
-0.265909 0.572715 -1.388848
0.889786 -0.453430 -0.471261
0.400340 0.452901 -0.112308
-0.888799 -0.479569 0.095242
0.489841 -0.822949 -0.640142
0.262944 -0.083228 0.146498
-2.614441 -0.294912 0.853269
-0.615875 0.486526 -1.208745
-1.562785 0.417818 -0.054465
-0.335887 0.846466 -0.311841
-0.632619 -0.740820 -0.952345
0.466648 -0.312098 1.142521
-2.952332 0.922840 0.359630
-0.090824 -1.291413 -1.659877
0.751091 0.242147 0.223219
-0.102471 0.849808 -0.585872
-0.336405 -0.176596 -0.213660
1.336572 -1.254438 -1.954571
-1.454026 0.683651 -0.100775
-1.598721 0.099665 -0.323985
0.559495 0.794266 2.518159
-1.182151 -1.862760 0.589118
0.986713 -1.275694 -1.274729
0.344366 1.714483 -0.876609
0.087067 -1.899145 -0.198586
-0.113648 1.467540 -0.706678
0.686410 -0.771762 0.090332
2.077321 1.793101 1.960568
0.397572 -0.210262 0.284926
0.466048 0.389315 -0.711387
-0.751560 -0.596258 1.070315
1.179037 3.183434 0.425646
-0.788429 -0.478890 -0.157502
1.506249 0.732939 -1.346809
-0.056844 -1.471477 0.592478
-0.706808 -0.611234 -1.878731
0.756818 1.208667 -0.692942
-0.162015 -0.479307 -0.218260
-0.819655 -1.100251 1.368620
-2.639715 0.504114 0.283332
1.653919 -0.236386 -0.371303
-0.808461 0.355564 -0.708232
-1.128785 -0.737084 -0.946813
-1.005957 0.085309 -0.194537
0.549593 0.147230 -1.202722
-2.122551 -1.056158 0.763766
0.741110 0.984678 0.837940
1.087146 0.406316 1.802941
0.293651 1.999264 -0.626389
-0.651939 -0.192383 -0.037479
-0.321244 0.539668 -0.102321
-0.607175 -0.396028 1.217623
0.317166 -1.676277 1.510624
0.433509 0.639131 0.929071
0.980732 -0.919114 -1.070215
2.396401 -0.698078 0.378653
1.631465 -0.443506 -0.360122
0.926464 0.212874 0.495112
-0.080427 -0.526366 -0.332941
1.193976 -0.295619 0.428724
-0.968800 2.040279 0.318875
0.339612 0.926279 -0.480896
1.193748 -1.516305 -0.614420
-0.801228 -1.880598 -0.528685
-0.051952 -1.089919 -1.234323
0.041075 -0.079992 -0.265744
-1.266132 -0.394537 -0.666274
0.085879 -0.558832 -0.038754
-1.310818 -1.396847 0.557540
0.765352 -0.392724 0.027636
-0.449713 1.097226 -0.203101
-0.498876 0.966299 -0.774080
0.156616 -1.048470 0.664550
0.815419 -1.288694 -1.444642
0.288542 1.940819 0.883971
-0.212335 -0.854301 -1.216122
0.717074 0.922774 -0.631159
-0.246728 0.046956 1.812846
0.065153 -0.980952 -1.156642
-0.911224 1.264022 0.513140
-0.345494 -2.925297 -0.852632
0.343969 0.352168 0.343459
-1.347305 0.177001 -0.975910
0.001891 -0.767774 1.070432
0.337447 -0.143233 1.380378
-0.372493 -1.415073 1.055874
0.252210 -0.318677 -0.643745
0.510784 0.813635 -0.766715
0.565340 0.250606 -0.829419
0.003858 -0.546653 1.240338
-0.648917 1.508874 0.131411
-1.745513 -2.173119 -0.208607
1.333626 1.230620 0.166313
-0.737069 -0.417299 0.207350
1.087306 0.569200 0.968285
0.643675 0.938885 -2.261200
-0.892558 -1.104813 -1.199857
0.005570 -1.447279 -0.943766
-0.098706 -1.603609 -0.486168
0.638843 -1.225418 0.796299
-0.806174 0.271649 -1.106203
0.453360 -0.303583 0.466197
-0.545200 0.556062 0.846900
0.119725 -0.479542 -0.233695
-1.264265 0.202918 0.622963
1.566269 1.308311 -0.977320
0.212107 -0.132986 1.217996
-0.709173 0.878081 -0.987032
-0.105981 -0.884511 -1.965041
-0.904417 -0.257512 1.426169
-1.087352 -0.605730 -1.440349
1.155279 -0.460462 -0.338367
-0.347735 -1.950571 -1.466606
-0.951782 0.616017 -2.499244
0.541307 0.343098 -1.814890
-0.316972 1.163860 -1.070521
-0.551977 2.761056 0.325898
-0.257994 -0.477059 0.373060
0.684908 -2.155762 -2.233936
-0.998047 -0.153843 0.075569
-1.703459 -0.204784 -0.071839
-0.849847 -0.534490 -0.726501
0.464300 0.006870 -1.142284
0.955047 -1.367293 -1.712909
-0.245151 -0.250220 0.072787
-1.181321 0.893080 1.714738
-0.021648 0.316010 -2.115141
-0.434890 -0.695996 -0.858105
-0.657501 -0.557715 -1.454933
-0.487268 -1.041681 0.788333
0.330330 0.331700 0.976786
-0.826279 0.269789 1.070220
-0.896161 -2.029171 -0.690693
0.956521 -0.953070 -0.465099
-0.779695 -0.190354 -1.048502
-1.483124 -0.440847 -0.270409
1.116481 0.066262 -1.171715
-0.731682 0.713493 -0.423816
-1.093107 0.082329 -0.789888
0.478145 0.362966 -1.147380
1.784969 -0.122949 -2.663775
0.380555 -2.598273 1.039830
0.057062 -0.146182 -0.084650
0.501744 -0.565155 -0.094892
0.033373 -2.965956 0.509303
0.678103 0.367431 0.296717
1.511452 -0.129054 -0.094631
-0.737150 -1.998738 0.372938
-0.629189 -2.009652 -0.160188
-0.188140 -0.315168 0.050669
-1.645967 0.907149 0.348532
1.157771 -0.639602 0.345187
-1.953651 -0.918415 -1.457146
0.174879 -1.189436 -0.522358
-0.088956 -0.492449 -1.401155
1.561107 0.030395 1.570101
-1.116804 -0.460696 0.002081
1.447491 1.563033 -0.519068
-0.814558 -0.090365 1.115402
0.050874 0.233296 1.106128
0.944819 0.983476 0.622042
1.352097 -1.215049 2.249263
1.060359 -0.160308 1.109715
-0.347446 0.474826 0.591975
0.862152 -0.459675 0.883383
-0.441902 0.730974 -0.017879
-1.823960 -0.736759 0.848123
-0.303650 1.213548 -1.213293
0.696138 -0.047532 -0.246785
-1.178306 0.210020 -1.008897
-0.636061 -0.140668 -0.365725
1.027790 -2.590153 -0.178376
-0.362779 -0.008511 -0.544275
1.023881 -0.257713 0.132946
0.892256 0.052003 -1.269210
-0.426584 -0.124117 -1.646562
-0.711809 -0.068267 2.012204
0.371102 0.157739 1.690628
0.587848 0.728895 -0.406896
-1.265474 0.261648 1.822199
1.513032 0.657841 -0.686605
-1.550634 -0.822247 0.217712
-0.471011 1.002056 -1.489188
-0.128759 -0.766689 0.991288
0.542611 -0.831006 0.854210
-1.622763 -1.786495 -0.885170
-1.982901 -0.112563 -0.080788
-0.405504 0.538916 -0.723392
-1.297636 -0.797232 -1.220376
-0.611756 0.596017 -1.756418
-0.339689 0.957618 1.071710
-0.682026 2.213224 -1.051609
-0.228470 -1.170288 0.433086
2.801221 1.843741 0.846394
-0.607490 -0.167933 1.116046
0.749506 0.082917 0.141912
1.055701 1.303380 -1.500738
0.227030 0.578173 -0.532156
1.279021 -0.288521 1.306790
-0.368342 0.259375 0.237262
1.662627 0.740997 -0.457645
-0.272255 -0.276169 0.018497
-0.944551 -0.081332 1.368075
1.323650 -1.564851 -1.723195
-0.593132 -1.779105 -1.263388
0.351209 -0.037883 -1.720938
1.170033 -0.421961 -0.518278
1.016556 0.410879 -0.042421
-0.494588 0.569621 -0.432813
-0.228368 -1.176496 1.142560
1.552596 0.211893 -0.486148
0.935450 0.588651 -0.443770
1.151143 -0.424457 -1.286127
-0.065792 1.084344 0.102768
-1.172635 -0.403124 1.196315
0.273825 -0.018880 -0.130413
1.079877 1.014668 -1.401178
0.939928 0.516423 1.592986
-0.069131 1.135233 0.468933
-1.113898 1.020598 0.809421
-0.649926 0.289512 2.107754
-0.483039 0.726169 -1.094880
-0.570309 0.810563 0.256681
-0.201238 1.702497 -0.921813
-0.145979 0.491773 -0.871508
0.509230 1.074675 -0.114602
-0.685259 -0.312440 -2.678408
1.006124 0.264590 -0.176426
-1.666790 1.109039 -0.437597
0.565243 -0.011393 -1.614898
1.268543 1.078584 0.764034
0.314847 -1.197479 0.868964
2.204999 0.116136 0.135688
-1.101839 -2.070400 -0.359116
1.481668 1.343759 -0.065408
0.430129 -1.218362 0.111226
-0.524431 0.054671 -0.274653
-0.292506 0.996399 1.963923
-0.169456 1.418630 -1.241564
-0.092239 -1.296194 -0.312364
0.715699 1.118634 -0.778525
0.458067 1.229994 1.087728
0.258957 -0.589184 -0.688836
-0.842650 -0.031611 -0.823155
0.678039 0.228337 0.183017
-1.840476 0.027780 -0.459118
2.166418 -1.279948 -0.205425
0.383099 -0.972713 1.928253
1.948788 -0.858418 -0.591808
2.146813 1.395271 -0.369347
0.431436 -1.386728 2.196738
0.072862 0.585586 -0.935046
-1.136091 0.451091 1.916299
-0.540478 -0.979103 0.305131
1.637193 -0.638589 -0.249893
0.837124 0.944415 -0.284444
1.096646 0.528768 0.016191
0.902456 0.764605 -1.047013
1.483512 0.345399 1.375614
0.051794 0.247639 0.398887
20.546850 21.528199 20.466441
19.972011 21.009533 20.430419
22.955533 20.291418 21.237664
20.882082 17.950102 19.263212
19.560576 18.500349 19.604743
18.628815 18.890835 20.241582
21.919398 18.637790 18.784516
19.467261 19.852823 18.457866
19.300915 19.208549 20.318363
20.425629 19.847239 19.622235
19.290300 20.051578 19.023914
21.547238 18.502098 19.343696
20.868201 19.601363 20.671973
21.717194 20.833103 18.797975
18.845772 19.812600 20.443048
21.206136 19.215013 19.515096
19.749350 19.729284 21.495645
19.895953 20.153053 20.911483
21.591088 19.964804 21.259191
21.827771 19.889660 19.436362
22.187067 21.121082 20.012491
20.649962 18.955024 21.109419
18.199970 21.070642 19.278289
18.346121 17.998625 19.523847
20.711114 18.610108 18.764427
19.505780 20.807553 20.932529
20.139870 20.983370 20.687611
19.583013 20.909512 18.715823
20.486486 18.833986 20.142801
21.218568 20.213198 19.987422
20.226031 20.663309 22.134002
20.652441 19.497486 19.791347
19.098873 18.760762 17.567524
19.538398 18.595562 20.097053
19.490525 18.914478 17.896495
19.650661 18.247616 20.706162
20.254898 19.773202 21.450747
20.009827 20.386082 20.687464
19.483118 19.488709 20.041447
18.653475 21.785314 20.160778
19.799058 22.085527 18.898507
21.536151 20.813294 21.117029
19.824450 20.055865 19.656707
20.996342 20.391736 19.441515
19.487442 19.985187 19.667717
21.441773 20.808215 20.806112
20.233917 19.173494 20.696108
17.901817 20.174055 19.187881
19.110883 19.536666 19.916063
19.976584 20.790238 19.826115
19.898266 18.604387 18.734612
20.287069 20.630668 19.739528
20.932958 18.592108 20.398539
19.148222 19.069250 19.235084
19.919234 20.438897 20.362979
19.709518 20.632267 21.686741
19.880589 20.094796 19.388270
19.608041 21.248347 21.258658
19.798933 20.490252 20.920457
19.553483 18.694092 20.689309
20.896388 20.749279 19.625851
21.523111 20.284265 18.852410
18.403913 19.702806 20.224812
19.712054 21.993562 20.403984
19.026851 17.729658 20.235014
20.988954 21.863767 19.797588
21.721999 18.641072 19.656092
18.985603 20.792101 18.698923
20.401750 18.758171 21.757782
19.625744 20.377966 18.211227
18.505198 19.226604 20.850518
20.659090 21.085390 18.490269
20.506869 19.440103 19.191896
19.462772 19.883532 20.661044
21.122805 20.521072 20.633271
21.823050 20.697073 19.786165
20.581105 21.707646 19.129639
19.569063 21.450128 19.709527
20.764290 21.289087 18.744180
19.591577 21.204689 19.873573
17.981408 19.490030 20.794462
21.276493 20.050845 20.483782
19.630940 20.903184 21.425196
20.768200 19.881833 20.434111
20.952488 20.027702 20.800529
20.370309 21.419358 20.700138
19.501443 21.404494 20.460055
19.860264 18.645996 20.231379
21.834889 17.270624 17.310287
20.767339 20.236172 20.672384
19.473614 17.858223 19.168015
21.560005 19.548411 19.557071
17.370600 18.195520 21.110167
19.740572 20.991202 19.246301
18.532218 19.739076 19.427047
19.166910 19.192991 19.865062
19.508431 19.067732 21.804714
20.457955 20.158483 19.933455
20.665615 20.531823 18.965721
18.467730 17.725915 21.791931
19.554690 20.592060 20.202061
20.912559 19.935462 18.672031
18.962883 19.649242 18.414730
19.145673 18.801178 19.671313
19.503968 20.119482 20.854467
19.757385 18.497590 17.951663
20.162318 19.334500 19.842639
20.329541 21.443177 18.252495
18.987542 19.914766 18.859806
18.510944 21.309577 18.952043
18.690815 18.851851 21.085994
19.304618 18.614384 19.159838
19.951829 20.891771 20.807768
19.222231 19.468876 22.102884
20.995685 19.748220 17.704848
19.541171 18.673381 19.137319
19.034668 19.768792 20.069760
19.268419 18.722294 19.821069
19.501721 18.102461 20.607571
19.271153 19.730548 19.780154
19.984559 20.146043 18.695402
20.312358 19.655867 21.084443
20.814979 21.322763 19.061635
21.286665 20.094075 20.690188
20.674381 20.459055 18.911776
20.955081 20.351679 18.526915
19.516319 18.786918 18.573793
20.853324 18.520626 18.678882
21.978223 19.552114 20.657661
21.124832 20.774214 20.149573
19.962736 20.537606 19.775337
20.694887 19.741041 19.854464
21.881760 19.519610 20.019241
20.430563 20.494793 20.292862
18.749610 20.162043 20.242829
21.139960 20.739242 21.205860
18.996795 19.003980 20.328100
21.132852 19.799566 19.259710
18.398533 20.363029 19.887086
19.566054 20.905190 19.913205
20.000887 20.899874 22.190736
19.555538 19.123760 19.010941
20.476824 18.909481 19.626778
19.714720 21.556399 21.192860
18.463285 21.584824 18.783849
20.160291 19.165456 19.611695
19.019591 21.675523 19.859904
20.225590 18.927724 18.584935
19.555856 20.521460 19.878548
20.974539 20.124171 20.006465
20.535113 20.100300 20.944029
20.555211 20.910965 20.716457
21.360271 20.828934 21.747596
19.458815 20.834784 18.619283
20.947073 20.056445 20.936801
21.679511 20.801097 19.587254
18.912028 20.536011 19.714063
20.663599 19.493259 19.070522
19.758260 20.500952 20.122199
19.186914 21.800514 19.861257
17.738176 20.932297 19.988896
19.829478 19.809606 19.815237
21.668977 20.464532 20.260378
19.737261 21.728474 20.842931
20.989054 20.278168 20.999938
20.393184 19.628711 20.369416
22.097086 20.203818 21.270170
21.191380 20.562870 21.656774
17.827075 18.163622 21.727827
19.352574 20.111772 21.750578
20.199650 21.689609 19.611760
20.615894 20.058135 21.490634
19.738385 19.035697 19.532381
19.576747 19.352850 19.311277
21.121717 21.407820 20.391927
19.352670 19.415969 17.927089
20.379686 19.317270 21.471100
18.621886 19.407648 19.904438
20.465230 21.802946 18.629569
19.698062 18.571831 20.789952
19.353106 19.896696 19.827736
20.116287 19.843730 19.028318
20.084900 19.205613 20.814563
20.057414 18.960257 22.406876
21.658852 22.443473 19.657105
19.164814 20.806499 21.108028
20.196727 17.896260 19.018895
20.422505 19.339827 18.634990
19.742344 16.753362 19.396694
19.573977 20.310397 20.547621
20.377710 20.897249 19.832021
18.544412 20.044195 19.124499
18.643113 20.579016 18.587117
20.680210 18.707841 19.709454
19.435977 21.136895 20.594337
19.175755 19.842405 21.329413
21.493020 18.631191 21.316197
21.239648 20.178613 19.909240
19.449564 18.746596 20.338943
19.829943 20.434920 20.458811
22.517902 21.196684 20.546917
17.863038 20.392309 21.582268
19.573040 22.190681 20.543864
20.294555 19.009230 21.503700
19.169374 19.435626 18.118923
20.896154 20.587665 20.010202
20.740245 20.645990 19.634483
19.215163 18.284728 19.822324
18.691851 20.162668 19.839583
19.597969 21.046516 19.013636
18.152018 19.774607 19.260057
20.121569 19.086404 20.420528
19.027119 19.016298 20.616435
19.953548 18.812933 19.048184
19.627186 18.857038 19.712065
19.747256 19.082935 20.650038
18.979618 21.245668 19.781516
19.340342 20.539365 20.034446
20.759893 17.998943 20.516851
19.480723 20.037584 19.911830
21.346616 18.139504 21.614095
20.706444 20.152136 18.566475
18.327932 19.439053 20.635103
19.993997 20.578240 18.536644
20.044400 21.095381 21.451887
18.746033 19.648078 19.659203
19.373635 20.907770 22.871475
18.886285 20.424768 20.295532
20.316984 21.332997 20.373293
17.863702 18.563175 18.933059
19.251434 19.860418 19.785292
18.176602 18.391298 17.881018
18.445986 20.991164 19.729547
19.047296 18.082424 18.987176
20.607183 20.475664 19.747537
19.732961 18.228748 19.223944
20.555580 19.325185 21.623476
21.205566 19.546226 19.734634
22.223075 20.847195 20.070275
20.185703 20.148892 19.983026
18.929022 19.597684 18.563960
20.724811 19.867512 20.775485
18.725572 21.422079 21.297710
18.425572 19.494120 19.602671
18.562105 19.740132 20.558092
19.530571 18.287118 20.772488
19.208304 19.313729 21.681292
20.396654 19.190940 18.810902
20.965891 20.897045 19.493269
18.740990 20.385599 20.593922
19.627260 18.896837 20.024759
20.461749 19.512901 20.261893
20.360974 21.145464 19.579317
18.860744 19.932680 21.687502
18.236876 17.686940 19.891961
19.620725 19.791635 19.754426
21.005577 19.957538 20.819589
17.522496 19.470962 19.184704
17.715349 20.103397 19.899690
19.532952 19.874024 20.103391
21.013099 20.642530 20.328555
22.307239 19.291927 18.640099
21.174152 21.866838 19.364808
21.377802 19.466544 20.584753
20.640273 19.368947 21.846725
21.961583 18.978793 20.201054
20.914502 18.117417 20.026231
18.346822 20.667484 20.085973
19.626231 18.433099 19.401398
20.519197 19.959030 21.192531
21.127759 21.085295 19.462231
20.294975 19.034766 18.740066
21.181853 18.813476 18.706046
20.105195 19.729324 19.815782
22.305655 19.005534 20.495033
20.086693 21.009339 19.214211
19.775535 20.114147 18.566179
18.194450 19.979201 21.337637
19.647796 19.784915 21.150706
19.851184 20.776909 22.666468
19.422936 19.822945 20.396218
21.491624 19.884873 20.729269
20.347885 19.927760 19.579578
19.390785 23.065526 18.458952
18.553710 20.244740 20.203266
20.426353 19.125455 18.973528
19.714503 20.907614 18.982266
20.151125 19.487740 18.475519
18.718592 20.910348 19.396167
21.243809 19.962752 18.632174
20.477199 19.198659 19.623155
21.132724 18.710321 19.550385
18.916468 18.809667 19.526809
19.142430 19.726093 20.638840
19.249139 18.531817 20.641476
19.242421 21.827769 19.591004
19.864025 17.695908 18.838266
17.720859 20.294087 19.918203
20.630123 20.807410 20.961472
19.774960 20.085413 20.578942
19.205272 19.061988 21.540067
18.193836 20.500004 20.341212
18.876679 19.332157 19.643159
20.216672 20.351671 19.969070
20.188393 20.659450 20.613263
21.534306 21.043136 20.017791
20.640682 20.423823 20.164407
19.131402 20.162256 17.934751
21.072325 20.350348 19.840815
19.579282 20.654503 21.837514
20.375080 21.902248 20.784354
19.194598 20.487729 20.390068
19.194008 19.592274 19.572450
20.100225 19.719961 20.268667
20.430686 21.267668 20.549140
19.298059 22.111103 19.304533
19.612408 20.597496 22.895300
20.401585 19.358418 18.360674
18.294176 20.010958 20.544746
18.580187 20.221972 18.686428
19.075595 20.631748 19.252374
21.310082 19.415622 21.109442
22.265215 19.254319 22.466029
20.013486 19.367433 19.703959
19.596555 21.401790 21.317837
21.305968 18.700587 20.189303
18.450306 21.011099 19.516347
20.503078 19.498141 18.244147
20.885153 20.962391 20.139369
17.888600 20.750354 19.262412
20.516576 19.509397 19.612039
20.497618 19.179095 19.833316
20.509599 22.166449 19.925531
20.839489 18.828192 21.694633
19.191962 19.867808 20.511215
19.220086 21.080908 19.338193
20.830624 21.067702 20.578429
20.708431 22.530875 20.416544
20.109839 20.336233 21.271327
22.329275 19.833534 19.087621
21.162549 18.636912 20.257759
20.304625 19.892663 19.951460
18.347506 19.131719 20.937091
17.958731 19.914006 19.687434
18.007561 21.692376 18.969732
20.548927 19.531102 19.155140
19.764019 19.643646 19.813266
19.213048 18.986015 21.004456
20.006936 19.939687 19.108522
21.574399 19.912571 18.104291
20.275824 19.235806 20.910834
21.038432 20.922934 19.538593
19.887102 20.248606 20.892661
18.962247 20.093426 21.867923
19.464606 19.973929 22.613488
19.758763 18.461206 19.942619
21.672930 21.056715 19.020309
20.415395 19.824155 20.812034
19.384603 20.494518 21.910253
17.387634 20.592893 21.319067
18.443663 19.279403 19.606296
19.269090 19.194186 19.625257
20.851695 21.487652 21.302654
20.993801 21.832115 22.031328
20.166059 21.430965 20.423919
19.783761 19.950231 21.012517
21.465591 20.580454 19.603962
19.510521 18.146716 20.360934
20.292893 18.955363 20.473105
20.456333 18.516288 19.678256
21.409046 19.366819 20.017642
20.160457 19.973664 20.688704
20.935222 21.264583 19.686502
20.523867 20.839829 19.881667
19.280838 20.143578 19.394268
19.295772 20.220134 19.811684
20.175522 18.448773 19.824453
17.739735 18.954530 19.911066
21.213123 20.536851 20.090277
19.623255 19.749408 21.305779
18.893651 19.274462 21.066755
19.656073 21.939086 20.690700
21.154957 18.374372 21.059427
19.150610 20.715765 19.636299
20.222803 18.893770 18.279420
20.150556 19.706200 19.106204
18.317950 17.324946 20.523559
19.744935 19.396135 20.212812
21.014404 20.269567 19.556871
22.132488 19.364247 18.590369
20.099816 19.744439 20.947094
19.473711 19.834846 19.134232
20.807659 20.143570 19.724815
19.850010 19.978690 18.562639
21.162708 21.104028 20.040680
19.933810 19.003342 21.727335
21.485455 20.394395 20.820048
21.230481 21.027470 19.143805
19.688874 20.468182 20.203325
20.753059 20.643725 20.246971
17.396263 21.172836 20.839036
22.069214 19.522502 18.157094
19.819552 20.456680 19.557961
21.371794 19.339861 19.899115
19.754010 22.774311 19.093922
20.583731 18.798792 20.342965
19.045533 21.099945 20.908129
20.271520 18.608571 19.946796
19.695862 20.830393 19.097512
21.155061 20.967387 18.625599
19.780397 19.948665 21.005948
19.313179 20.207604 21.099059
20.251269 18.142679 19.505479
20.904232 20.779375 17.750609
20.200738 20.946005 20.538924
20.653575 22.062316 19.956547
20.304777 19.060504 19.365329
19.668026 20.849726 19.252391
21.234623 18.906834 20.639605
20.552067 20.257478 20.984639
19.257459 19.533873 19.036647
20.009012 19.880058 20.856455
20.386812 20.689417 19.802871
20.405674 21.812735 18.654458
18.160906 20.636913 19.151457
18.618269 20.533908 18.995624
21.539056 20.156470 19.797394
19.178420 20.215188 18.409079
17.531710 18.445846 21.137190
19.075861 18.565498 19.911199
22.224688 21.091895 19.199555
19.181536 19.204045 19.089735
20.543793 19.664052 18.886860
18.663733 22.301034 20.738746
19.143910 21.212359 18.847611
19.862890 19.753436 20.182326
19.057898 20.128491 18.251620
19.623268 21.335231 21.025352
19.303986 18.474064 17.816855
20.617471 20.278390 20.385673
21.690603 20.152894 20.228082
18.602620 21.623937 19.836042
19.183124 20.207857 22.000312
22.135199 19.029600 21.175372
20.335731 20.987592 20.276716
20.614885 21.321305 18.250830
20.360374 18.830488 19.536401
20.000971 18.992168 19.418612
18.599284 19.406720 20.511852
20.865453 19.230621 21.327791
20.577384 21.433389 18.229222
20.311251 20.611213 18.281476
22.414248 19.363437 20.543859
20.926744 20.101183 21.385828
21.995213 18.890388 20.116146
20.915677 18.366961 21.064273
21.706536 21.283887 20.438445
21.539460 20.357451 18.680383
19.478105 19.744376 19.936050
19.905770 19.661750 20.218844
21.504236 20.214113 20.628716
17.806079 20.125977 21.086835
21.246850 21.145102 20.303412
20.413935 19.327279 20.845018
19.332606 20.680894 20.041513
20.014942 21.001242 20.561207
20.282597 19.502273 21.602313
20.332963 20.747387 20.080947
19.306268 20.354945 19.404234
20.437778 16.734699 19.599186
19.985651 19.045572 20.363782
19.577776 19.994090 19.448474
20.971911 20.545972 20.297906
20.061991 22.530632 19.842590
19.303114 18.826939 20.905355
21.631219 19.151944 19.715103
19.640570 19.875903 18.232228
20.806726 21.190244 18.095445
21.757935 21.617538 16.930149
17.826682 19.867070 21.316040
20.289771 20.021384 20.573662
19.191906 21.277360 19.896383
18.366972 19.204522 20.369009
19.710321 19.606736 20.202933
20.358624 18.769619 21.223492
19.868878 20.419686 20.097382
19.589883 20.911644 20.081169
20.073318 17.511306 20.819952
19.829466 20.754932 21.644961
20.823367 20.054151 19.713573
22.525723 20.483385 20.209630
19.817060 19.103443 18.049313
21.521176 19.220617 19.809684
19.893942 21.433108 19.233708
20.257349 20.512163 18.615548
18.521536 19.284980 20.243670
20.116490 19.880917 20.652386
19.143204 19.829455 19.886458
19.170212 22.301695 17.839562
21.240681 20.800072 20.808288
