ply
format ascii 1.0
element vertex 450
property float x
property float y
property float z
end_header
-1.295929 0.571232 1.968902
-4.510456 5.603808 3.116348
4.063121 -3.946398 1.674267
-1.864522 -6.931350 1.990613
-0.342717 -5.175643 0.262492
1.276886 7.277705 -6.767521
-0.745059 7.824788 -8.388503
0.774779 7.923204 -0.809007
9.445921 4.709295 -6.383851
-2.228267 3.335353 9.553053
-7.825611 1.367450 7.557174
7.358652 5.958812 -4.848144
4.135014 -3.708098 -3.236782
7.790706 -4.474108 6.287309
3.761555 -4.390666 1.781858
-7.028476 -9.922390 -4.082806
-8.335061 7.968396 -8.810498
-7.478653 2.483342 -0.107665
-3.993538 -9.282401 -8.384709
4.239276 -6.367240 -7.778352
-9.413163 2.539016 -0.678441
-0.477971 -7.297621 9.862093
-6.442175 -7.119500 6.656096
3.243054 -3.327349 9.353468
-6.411573 -3.688564 -9.789637
9.634855 -6.945837 -8.225724
-1.464603 -5.020409 -0.595745
1.950321 -2.944891 7.603046
-7.672341 0.118343 -0.734540
6.893826 4.089904 -6.681752
4.669691 5.277578 -2.180324
-7.735500 -3.584700 4.318125
-7.750874 7.809683 3.727396
-4.525809 -6.850912 -7.337592
6.241608 -8.423492 2.367098
3.226098 -0.888227 2.742848
2.535785 -3.527819 7.603410
1.819032 9.416293 6.254352
3.604320 1.263426 4.245887
1.856702 0.856786 -3.682278
-0.987093 7.490169 5.671302
9.959889 2.555152 -7.348444
7.906830 9.371221 6.602817
3.765246 -1.848669 1.896146
3.898660 -3.934295 -9.989264
1.201967 -9.988607 -6.135489
-4.673474 3.874760 -0.302121
-1.570299 -9.725864 -3.752828
9.758672 0.598922 -8.695754
-0.515439 -1.518929 7.548605
9.142301 -7.052237 -3.214145
6.587264 -3.435606 9.940766
6.055771 -0.193686 3.127623
-1.254671 5.910008 -2.208916
-2.320025 9.191109 9.189327
0.994379 -4.644478 8.394276
8.704724 8.511432 0.022833
6.500674 -1.377806 2.741001
-8.574020 0.000696 -1.233052
6.309694 -6.634535 1.867424
-1.406171 -9.672682 7.308329
7.901322 9.250609 2.720831
7.807989 -6.246827 -8.606093
2.499541 9.673420 7.826829
-9.138642 -9.627045 -4.249972
8.022616 -3.036596 -1.872197
9.810925 -4.066386 -8.758369
7.990741 6.850997 -5.215543
-5.054414 -0.988754 -5.850608
3.764658 1.026735 3.673229
-7.120449 -4.401996 1.489799
9.311612 8.193446 7.169586
0.826567 -8.483530 -3.985557
7.470427 -8.575892 4.994984
9.380415 -0.913547 3.706089
7.975065 -5.662247 -7.643921
8.978996 -0.335579 -0.235375
4.200448 -4.831579 -7.698866
-1.094237 -4.197580 -2.191252
1.459354 -3.489613 -6.346436
-1.656628 -4.091180 2.829634
0.179129 6.863274 8.567932
4.067925 9.859399 -4.794546
2.722318 -1.714408 -4.145728
-0.128752 -8.967894 -5.357082
9.792159 0.347994 3.982633
0.928363 2.688489 -5.137689
-3.859439 -7.093421 -0.156943
-5.603953 -7.579473 8.013582
-3.690487 -8.837438 -1.345447
-3.135762 5.614979 4.116329
-2.827834 1.633815 6.727626
-9.978312 -4.887420 -7.174635
-7.959187 -0.894182 -6.851653
3.634191 5.820575 5.008072
-3.977385 -0.757231 0.666237
-3.982640 8.580958 6.657615
2.057180 -7.870380 6.717156
9.437268 -9.538485 1.585368
5.203328 -6.030008 -8.582149
1.454074 -8.272027 -7.017101
0.132020 -0.103206 9.805201
-0.680660 2.267590 9.991712
-6.124180 1.511691 -7.325914
6.665119 -8.595803 -8.577698
0.536793 -2.476283 -9.029346
-8.602741 -0.894906 -5.254171
6.815680 7.580148 -0.480623
-1.652645 8.172645 -5.355917
0.722033 8.076802 -6.892734
3.465946 -2.376517 -6.128920
1.569819 -5.646492 -3.726394
2.693996 -2.244469 0.090232
-3.874721 4.633184 -3.840933
6.341382 1.019885 9.788680
-6.117670 -7.044168 2.801957
2.426164 9.079961 3.576951
2.292532 5.954210 -4.478178
-6.743577 -3.781735 5.656081
2.983488 7.609772 -6.486972
7.900568 6.109094 3.228447
7.976181 -6.796775 4.257145
3.766724 9.229016 7.157188
2.669580 -9.092424 -6.486981
-5.503737 3.508016 -0.518161
-9.017351 -6.230981 5.968362
-7.035114 0.691471 -1.113770
-6.979496 -8.142857 1.969197
-3.922693 -7.956820 7.199087
8.205098 3.798798 3.101775
7.677722 8.679974 -5.422582
4.832535 -4.532325 2.659184
0.767080 6.706594 -5.706822
-6.408075 -8.507751 -6.288280
-0.826266 4.951191 0.813713
-9.690992 9.281971 -1.548424
-4.288205 -5.702915 5.161463
-0.358819 2.572426 -0.191779
-3.301465 5.333803 -6.268421
-8.693801 -7.822460 -5.570321
9.989414 -8.724108 -6.866581
-7.124775 -0.564765 -6.219665
5.607429 8.008773 3.000794
1.031682 -3.129990 -3.189275
0.621027 7.435604 -8.837940
2.825111 2.882596 -3.010676
1.327720 8.770735 -2.434757
3.380010 -1.103760 -7.479539
4.115469 -1.007932 1.387784
3.755448 3.734893 6.604328
-3.517191 -1.952198 -0.051869
-8.482971 -9.362214 -0.003451
7.122599 3.953397 2.435877
6.667163 -3.868698 -3.288817
-4.523999 -1.252554 4.978645
-8.604572 -2.250249 9.620121
-2.134486 -9.529867 4.169718
5.696023 5.273679 9.140882
-6.433333 -5.953869 -5.153670
-8.877584 -9.355676 -2.508914
-7.685969 8.015958 9.262432
1.884787 3.267212 6.928610
2.069340 -4.705693 -9.131366
-0.093195 2.534045 -9.057558
-7.235784 1.229111 -4.762729
-1.523399 0.947029 -5.705377
0.540502 -6.277283 -6.668473
5.759347 6.186077 6.006913
7.784473 -1.419462 5.202296
-0.907535 -2.219805 -4.129079
4.180586 -5.001929 7.129641
-8.947749 -6.197366 6.759260
-3.421436 1.591794 -8.588778
5.500970 9.818611 -3.446780
-0.558396 6.090025 -4.299518
-9.317713 -5.466224 0.277278
-0.425818 7.105123 9.489488
5.757846 -0.147617 0.858058
-2.377997 1.130218 -3.962092
-1.907972 -1.260629 -2.621393
5.549310 -8.520528 -6.685616
-5.195677 -3.820897 3.311288
-0.803473 6.312705 2.890425
-0.219211 5.461550 9.967404
-1.750792 -0.457525 -8.080078
7.947233 6.065570 -9.225665
1.212731 -7.198394 -5.044760
-9.454233 0.107454 -4.644018
2.515817 -2.960473 2.936591
0.796220 8.079445 5.339743
9.331988 -7.631123 -2.559986
-2.216726 1.667664 9.061815
-8.802887 -5.559257 -2.063101
5.510393 6.027360 3.848714
-2.474364 3.008879 2.730899
3.530153 -0.371246 4.663921
3.697953 -1.191542 -9.456225
-2.029536 -0.239103 -8.139838
7.472978 4.942992 -2.367204
-8.551860 -6.512078 -0.174308
1.315017 -6.780690 -3.856870
5.076444 7.707421 7.697441
9.537229 -1.677285 3.718510
1.453380 -3.467407 -4.531812
7.601801 5.990157 2.316380
-3.458235 -9.235631 -8.088874
-5.736034 4.000928 1.221448
6.601229 2.844787 -9.028669
6.834801 -3.826034 -5.548005
3.139359 1.592121 6.964987
-4.728482 -4.466037 -3.957960
7.305796 -2.152642 9.185074
6.318004 -0.565066 -2.064531
8.021986 0.196296 -0.488770
1.336143 -9.727315 -7.324656
6.464321 -9.785701 5.922424
-3.728942 7.997786 2.149269
2.932906 7.063006 -8.716340
-0.244540 -2.072398 7.332825
-6.701718 -8.600071 -9.458706
-2.626638 -1.031972 8.074096
-4.655671 -6.130498 -5.295337
-6.625932 -4.775947 9.132798
5.656891 -0.786508 -2.562699
-5.355898 -7.785665 8.551390
-8.295134 7.899495 -5.361276
5.293787 -3.948159 -8.685657
9.517570 8.208674 2.798821
3.424475 -0.101648 -6.642639
5.155410 -2.159910 -3.948506
-9.484328 -9.113227 -7.399686
1.708346 -5.178044 -0.349035
3.762352 7.984179 -0.815575
-3.043120 5.224962 5.558717
6.154450 -1.840508 -0.102520
5.148687 -5.630912 5.905831
6.443032 -3.625470 1.944784
5.968616 1.884679 2.239670
-0.817095 -9.322147 -5.714765
5.630480 -5.526420 -7.135789
-7.267962 -0.114562 -1.509438
0.457560 7.543453 -5.642983
-1.265514 3.539877 -1.821557
-6.332957 -5.817949 6.763583
9.682787 -7.607735 4.841295
-7.822511 4.010142 2.169192
-5.559064 -1.004184 9.326594
-9.067372 -7.216746 5.489081
-4.532109 6.815829 5.773838
-7.991208 6.075149 3.334734
-2.801196 7.244792 0.563334
-6.869934 -9.579107 -7.242513
-5.809267 7.293212 -7.796524
-8.841322 2.073425 3.510835
-9.631584 -0.588194 -6.083474
-6.014262 7.264477 -2.584283
-8.812099 -2.574252 9.526277
-5.494835 -1.769989 9.648384
-8.576651 -7.481960 -4.133916
3.485711 7.908123 -0.501664
-0.088181 3.053116 0.538179
-3.730480 -6.625913 7.861668
-6.505186 -4.281195 -8.458611
-6.300396 -6.491249 6.920468
3.654708 -6.918392 -9.723684
-8.836503 9.595935 -3.168307
-2.255684 -7.895714 -4.086605
2.592442 3.135788 -8.587362
-4.920239 4.719072 2.218592
-6.557509 -2.347522 -3.173583
4.274331 -3.741603 7.113226
-6.628288 9.395688 6.398912
3.448684 2.148899 -2.704625
-9.026872 -0.292294 2.291481
5.086877 6.657832 8.360967
-8.993563 -3.482702 9.674903
5.233590 0.215567 1.302632
-3.968707 -9.216048 -2.142479
5.592663 8.847855 5.237555
4.422071 -0.591984 0.608244
-9.474287 -0.645160 8.643173
5.695020 -8.410307 4.547549
6.190635 -0.460586 6.535048
2.102639 3.252152 -2.934140
-1.703701 -1.413144 -4.996369
2.601161 -4.136770 -0.915149
5.348390 7.927480 4.218494
4.371602 -6.768271 6.719488
9.720472 8.976773 3.143845
2.028292 2.336354 9.183019
6.445431 9.864023 -1.448163
-1.670866 5.263371 8.989406
-7.004749 -7.599804 -8.892287
7.548095 9.708781 -3.543500
0.472839 3.032711 -3.220502
7.944929 3.102625 1.220119
-8.720468 0.109259 -6.929694
4.189878 3.914201 -9.054072
4.973631 1.718631 -1.619761
-8.414717 -2.098827 2.522047
4.794298 1.268310 -9.668185
1.338860 6.880707 7.751009
-6.167367 -4.003796 -4.823786
-3.666628 -6.579405 3.454054
-6.744165 -4.764149 3.933947
8.756652 6.691366 -2.620908
-6.043211 -3.098267 -2.661655
-6.489362 3.794848 9.392884
6.223228 3.217438 -7.178512
-2.625813 -5.613301 -5.478526
4.918136 8.459488 0.902217
-0.003100 9.019594 -1.333090
-9.591866 -5.960316 -0.638820
-9.886130 1.927200 -9.959346
-8.200835 5.306383 -2.755149
-9.654641 2.897579 -1.782099
-8.821243 -6.730660 -2.506070
7.518285 3.575470 -0.718561
0.336032 7.659381 5.198498
-4.905763 3.684662 6.656538
-1.433190 -0.343873 -8.090139
-8.871150 3.778947 2.203807
-9.537030 8.025746 7.364912
2.081671 2.415326 -4.740067
1.507910 -2.659022 -6.967802
0.668604 5.428605 -6.159920
6.674162 -2.094205 -3.924382
3.353406 6.474566 -2.584975
8.523549 8.352008 -7.237541
-6.614191 7.769815 8.376202
3.236935 -7.291461 2.443157
-1.866097 -7.698278 7.919288
-1.456851 -4.820309 4.071504
9.384887 -9.654329 6.369211
6.242393 4.984232 -9.405066
-3.575924 -4.321115 1.817437
-0.602871 2.134746 -2.144549
-0.665201 -0.784341 -6.154000
0.036772 6.248919 6.588731
6.470193 -2.012879 5.067679
5.991185 5.194761 -0.498934
-1.615995 5.312593 0.291263
-7.498149 6.176960 1.466941
-5.029616 -9.355485 2.311693
4.481081 -8.391840 8.226915
-2.881882 -4.835970 7.296247
6.144423 5.908096 6.314650
-7.506129 -3.353846 -2.098376
5.574852 9.871414 -6.744967
-0.760450 -1.175886 4.166837
-8.041977 -3.228746 -6.241190
1.679826 0.738514 0.553217
-9.693268 1.079870 9.532683
5.033751 1.074791 -4.218180
5.666610 -9.011785 -7.664815
1.099960 4.983322 4.527267
8.801069 -8.844341 6.761946
-4.833573 4.241026 -0.530625
3.004132 -4.165371 -2.483712
-9.555520 6.915271 5.559219
8.087319 4.337296 -7.530138
4.698587 -5.346171 -8.147552
-8.612047 -8.523170 -2.759133
-4.906861 -3.519406 -7.076998
4.547649 4.263996 -0.235030
4.001537 0.183212 8.684439
1.282720 3.567974 -6.968609
-3.063431 -0.240038 4.136890
-3.468530 -5.787471 3.104210
5.757369 1.536991 5.640722
-2.734228 -5.865068 -3.747500
-2.602040 7.717440 0.463880
-8.561288 4.203392 8.389890
-8.177191 -5.173422 7.817408
4.230626 -2.656508 6.169594
4.832773 -9.928111 3.525901
-4.770976 -2.451569 -2.802109
7.546004 -5.174602 7.722791
8.397838 6.230108 -3.392046
2.362185 6.728999 9.397789
2.707230 6.212038 7.762047
-7.454135 -3.957217 -4.817402
-3.966985 2.228376 -3.585332
-4.394454 -0.081402 -4.636217
5.263588 2.147777 -8.430055
9.586760 6.488843 7.452481
-0.744045 0.657120 8.214964
-3.452577 -3.359622 -8.400220
-2.024744 -9.892324 1.728813
3.732600 -3.980186 0.626358
-1.968435 -1.875157 -2.211519
-8.281658 1.937967 5.646501
-8.398728 7.548274 -2.521882
9.389267 4.392105 2.174285
4.905872 3.351424 -0.869488
9.286420 -6.147225 8.367842
-4.219531 0.941741 -5.392453
9.056089 7.431483 -2.070593
8.459631 -9.244473 6.564692
-1.539913 -9.106257 7.331380
-5.311154 2.324572 -6.884824
5.474056 -2.948323 -8.673701
-1.034564 9.677378 -1.245602
7.175336 8.473444 -6.184131
-1.131585 4.681276 7.258023
-7.816121 0.120372 -0.336925
-4.397549 -2.323424 8.396019
-4.797121 -4.989888 -6.557468
-7.307406 -5.918168 1.444689
-0.369763 -2.286239 -5.101998
5.297535 6.053687 -3.816934
1.979131 9.978249 6.187767
-9.538526 0.887636 0.882924
-9.778306 -1.137281 -4.711981
-8.675351 -3.273693 -0.756731
4.643751 1.046196 -1.384701
7.700993 -1.773123 -9.156432
-4.694388 7.074064 -7.117627
-1.495533 5.884160 5.570490
-2.998006 2.906126 4.813822
-6.650602 4.536976 0.977874
-3.626419 6.719595 -0.960643
6.720530 -1.437721 9.926071
5.612694 -8.077869 -5.637954
5.504496 6.776367 1.607568
-6.705624 5.585069 8.722406
5.475899 9.769122 2.239411
2.397898 -4.551071 -9.365685
5.300100 5.817930 6.033046
0.169732 -8.851668 4.733456
6.736554 -6.408394 0.119998
-1.320112 2.932379 7.161996
1.346909 1.286105 2.853016
-4.109871 1.630816 8.587201
-0.998134 0.494254 -9.970324
-3.861131 -0.426546 6.947405
3.865387 5.918447 -7.742324
2.267005 7.169816 0.215769
4.319922 -0.897453 4.682052
-4.193984 0.621628 2.731389
4.290001 5.832251 5.601573
4.018960 -1.649335 -7.861566
-2.408528 6.834837 8.284993
-5.640864 4.077941 4.961406
7.678666 0.283042 -8.345576
-8.267689 3.749524 0.119004
7.222200 5.647952 1.093722
-8.664933 -8.495208 6.193449
7.585314 -6.880060 6.511461
-4.399520 -4.232673 1.803809
