ply
format ascii 1.0
comment cylinder cloud
element vertex 1500
property float x
property float y
property float z
end_header
0.089212 -1.530885 2.981514
0.629314 -1.385581 -1.382222
-0.785593 1.308980 -2.153681
0.483582 -1.449729 1.196942
0.556294 -1.339766 1.930093
0.148813 1.496383 -2.615535
-0.312911 -1.456370 -2.367640
0.588136 1.408911 -2.458957
1.232169 0.818707 -2.718244
-1.329304 -0.662885 0.956739
1.246854 -0.796060 0.529879
1.452919 0.324828 0.976840
0.710502 -1.351525 0.034003
-1.505208 -0.063883 1.905046
0.940403 -1.139947 0.280010
0.858126 -1.287556 2.512482
1.069426 -1.058836 -0.086109
0.178063 -1.505092 1.743952
0.842455 -1.277193 -0.555838
0.652785 1.323039 -0.388657
-0.501600 1.392167 2.093952
0.071259 1.508999 -2.354041
-0.064780 -1.474729 0.389507
0.845131 1.232833 1.358019
0.619890 1.363851 1.502524
1.077274 -1.011311 0.548961
-0.409060 -1.433994 -0.311613
1.076670 -1.078144 -1.435305
0.970486 1.148705 2.456557
-1.229871 0.899229 -0.781272
-0.320325 1.493848 1.793953
1.499393 0.089108 -2.810006
-0.322023 1.473990 -1.606985
-1.089898 1.034265 -0.926491
1.249496 0.804297 1.029444
-1.354448 -0.602644 -1.084015
-1.096903 0.997735 -2.751817
1.432136 0.425098 -1.956795
-0.423555 -1.427329 -1.445008
-0.215842 -1.493162 -1.943715
0.756410 -1.296688 -1.777653
-1.509101 0.142932 1.613742
1.481665 -0.292552 -0.527798
1.307682 -0.789170 -0.568925
-1.428866 -0.478435 2.799638
-1.428314 0.515492 -0.319789
1.501516 0.036825 2.565949
-0.375693 -1.479936 -1.205621
-1.410704 -0.618540 -0.596242
1.399876 -0.575408 -0.622300
-1.238000 -0.842821 0.276473
1.496917 -0.075106 0.505484
0.912769 -1.184435 -1.511250
1.427332 -0.422426 1.761506
-0.710292 1.337423 -0.020844
0.874957 1.197271 -2.957739
0.443591 -1.462232 0.548044
0.340168 -1.453665 1.788357
0.377965 1.507387 -1.497200
0.132176 -1.486491 -2.772774
-1.310890 -0.747246 1.843072
1.163198 0.952960 2.857660
-1.482982 -0.012628 -2.540618
1.382808 -0.643612 2.628221
-1.469669 -0.047151 -0.844354
0.354883 -1.449210 2.648638
1.486651 0.279089 0.893036
-0.203070 -1.491438 2.341466
1.398227 -0.481995 1.714998
-1.525818 -0.000133 -2.832014
-0.791204 1.275634 -2.607345
-0.901912 -1.181657 0.154468
1.282737 -0.738898 -2.222286
0.642488 1.300360 -0.233795
-1.257927 0.861782 2.727782
0.845353 1.266476 -1.231456
-1.468556 0.034479 -0.066524
-1.461628 -0.369093 -0.694442
1.402053 -0.519514 0.778962
-1.296651 0.792375 -1.836930
-1.359522 -0.601577 -1.440364
1.118577 -0.984588 2.152607
-0.656312 1.345181 1.868017
-0.676245 -1.316492 1.735138
0.068231 -1.530035 1.625518
-0.744714 1.332882 -0.243375
0.773249 1.282308 1.373345
-1.521581 -0.036911 -0.676771
-0.924843 1.147622 -2.395743
-0.160584 1.452165 -0.639752
1.484287 -0.250405 -2.048022
-1.513309 -0.030885 -0.654890
0.938519 -1.179335 -1.215449
0.497130 1.377991 0.594964
1.376613 -0.549584 -0.830758
0.415428 -1.447317 1.233538
0.568535 -1.443197 0.072880
-1.168902 0.971639 2.516954
-1.523981 0.149014 -2.453847
-1.251532 -0.831653 1.126255
0.370144 -1.455235 1.034381
0.862077 -1.195497 2.703759
1.327537 0.719407 -0.770689
1.232106 -0.837212 -1.167372
1.409166 -0.578360 -1.965639
-1.251325 -0.826963 -1.408269
0.583345 1.384351 0.011345
0.630380 -1.363477 2.026278
-1.432780 -0.456585 -1.294280
0.618140 -1.382462 -2.053547
0.584174 -1.359569 -1.367229
1.250395 0.762511 -2.394438
-1.179022 -0.936288 2.560172
-1.525272 0.162512 2.235745
1.452363 -0.514786 -1.149050
-0.429306 1.416798 -1.518073
0.402279 1.434778 2.432384
1.172896 -0.903153 -2.989368
0.887090 1.191614 0.603465
-0.598518 -1.394544 2.496023
-0.466751 1.435188 0.051345
-1.358321 -0.613991 -2.982198
-1.117625 -1.003127 -1.686771
-1.303703 0.731698 2.534650
1.516638 -0.241529 -2.897865
1.011955 1.112727 -0.631321
-1.160861 0.943427 1.738468
-1.373542 0.640656 2.028546
-1.034558 -1.115083 -0.134352
-1.275394 0.850037 -1.605097
1.223070 0.863254 0.598228
1.449413 -0.489647 -1.417332
-1.294266 0.756207 -1.468414
-0.816990 1.240458 1.845599
-1.403059 0.491860 -2.074405
0.315090 1.439013 -2.966871
1.208324 0.869264 -0.979349
0.898790 1.214830 -0.054156
0.752953 1.318634 1.230482
0.480122 1.391838 1.686692
-1.278056 0.708549 0.981115
-1.053934 -1.038432 0.759053
-1.028178 -1.057616 0.994492
1.494406 0.003567 -1.370841
1.348268 -0.737058 -0.705832
0.658251 -1.328719 0.698619
1.486826 -0.346849 -2.606576
-0.933962 1.128752 -1.228048
-0.756936 -1.288187 -0.561486
0.746052 1.320218 0.200644
0.627734 -1.383278 -0.081107
0.794473 1.263779 1.308791
-0.698827 1.347012 -0.159440
-1.513472 0.087874 2.424780
-1.242841 -0.845892 -0.718090
-1.394534 -0.559924 0.152230
1.211107 0.916023 -2.980738
-1.313635 0.704946 -1.137132
1.354138 -0.717412 2.199438
1.034102 -1.076220 -0.998542
-1.271717 -0.811859 -1.480882
-1.331214 -0.641541 0.261222
1.146906 0.985417 -2.527619
0.450878 1.418383 0.189631
-0.022769 1.488590 -1.178005
-1.467771 0.105825 -0.701383
-0.167613 -1.514435 1.748190
-1.457309 0.363100 0.971784
1.072926 1.081911 -0.323363
-1.389567 0.553098 0.465098
0.808943 1.311289 1.601153
0.008185 -1.508639 1.474702
0.748204 1.299944 -1.888070
-1.528763 0.156533 -1.194485
-0.517603 -1.395114 -0.910578
0.203278 1.502217 -1.874746
1.353769 0.700648 -2.927031
-1.366519 -0.578295 -1.956196
1.389070 0.483829 1.849466
-1.245630 -0.787696 0.275523
0.038332 -1.528117 -0.950052
-0.733626 1.349459 0.650067
-1.484118 0.112369 1.439005
1.358779 -0.653444 -0.873433
-1.486936 0.279158 -0.203551
1.498796 -0.039321 -2.614721
0.839879 1.251913 0.582543
-0.386711 -1.454287 -0.861557
-0.854512 -1.222345 -0.398858
1.023171 -1.060618 -0.464396
1.246395 0.804914 0.794456
-0.276329 1.407749 0.434792
1.028054 1.129975 -0.467364
1.364955 -0.614721 -2.898270
-1.339385 0.664288 0.725776
1.237997 -0.786613 2.277465
-0.409622 1.423146 1.617309
1.036678 1.053353 2.889694
-0.426874 1.426845 -2.165548
-1.238617 -0.863729 -1.664880
0.843088 -1.233776 0.235605
-1.116115 0.974371 -1.584710
1.265166 -0.742235 -2.792701
0.056373 1.477947 -0.586270
-0.533381 -1.436003 -1.274132
-0.126254 -1.524418 -1.417435
-0.206759 1.484232 2.719037
1.436764 0.246980 -1.569275
-1.000341 1.113764 -2.223405
1.447604 0.422133 -2.248084
1.224844 -0.885516 1.837944
1.457516 -0.429982 1.289088
-0.136033 -1.498317 -2.223083
-0.216864 -1.462993 -1.681481
0.084992 1.498089 1.484058
1.358940 0.680476 -1.352302
0.476426 -1.410467 2.889252
-1.395825 -0.542287 0.243420
-0.627966 -1.350313 -1.847952
0.292426 -1.495678 2.152851
-1.252512 0.791268 -1.083147
0.937826 1.199015 -1.267156
0.407503 -1.409185 -1.035353
-1.480608 0.439251 1.609183
0.674124 -1.301801 -1.960722
-1.396628 0.572080 -0.709285
0.302212 1.447851 -2.815003
0.697845 1.298749 1.959760
-0.064203 -1.519762 -0.955687
-1.347199 -0.693825 -1.510962
-1.249859 0.855164 0.479359
-1.508889 0.075172 1.229951
-1.452857 -0.466643 1.877376
0.092028 1.479441 -0.913290
-1.064995 1.019600 1.873805
-0.391213 1.442958 -0.210714
-1.145652 0.968259 -2.393146
-1.506038 -0.001024 2.077845
0.694054 1.338077 0.285809
-1.170594 0.920786 0.614817
-1.136431 0.998300 2.624948
-0.326335 1.474498 0.354909
1.508933 -0.020050 -2.966499
1.339353 0.654391 2.223695
-0.946136 -1.190287 -1.291494
0.687602 1.342578 0.010602
0.813205 -1.284148 -1.770680
1.310977 -0.782381 -1.218099
-1.233924 0.872800 1.119893
0.665531 -1.320849 -0.422560
0.010409 1.474422 0.762784
0.974510 1.174414 1.941454
-0.614626 1.378133 -0.955068
-0.838901 1.288618 0.410040
-1.160405 0.883697 1.665527
-1.050197 1.090867 1.290739
-1.266437 0.779661 0.239061
-0.374448 -1.443105 -0.699699
0.051102 1.478066 -0.554988
1.507216 0.174910 -0.401189
-1.512728 0.102121 -0.906927
-1.404523 0.464803 1.194454
1.390335 0.560907 -2.247508
1.026833 1.126067 2.804725
-1.492114 -0.080638 1.673913
0.141683 1.515587 -1.211022
1.084057 -1.028937 -2.744715
0.677586 1.296362 1.267819
1.494576 0.185951 1.406154
-1.427048 0.478666 2.781736
1.497450 -0.130104 -1.477767
-1.014927 -1.138110 -2.503649
-0.900166 1.169293 2.490809
1.483919 0.156694 -1.448106
-1.474900 0.138101 1.329189
0.406531 1.412596 -2.636042
-0.901547 -1.197290 1.563509
-1.307864 -0.761386 -2.237845
-0.156106 1.501798 1.173518
1.356210 0.626839 0.194058
0.041803 -1.500844 2.732929
-1.304080 -0.771098 -2.778494
0.830500 -1.268728 -1.247708
-0.090363 1.477295 -2.582946
-0.853276 -1.209792 2.275186
1.069260 0.988887 0.563407
-0.392639 1.443288 0.209818
-0.805875 -1.217261 -2.211253
0.701181 -1.368445 -0.065806
-0.639799 1.340303 -0.607778
0.450987 -1.456851 -1.105489
-0.668565 -1.370618 1.633134
-0.881972 1.230082 -2.632344
1.073998 -1.047058 0.880114
-1.477452 -0.093398 1.937958
-0.882883 -1.201511 2.443844
-1.531441 0.045994 1.475500
-1.444368 0.429113 -1.305266
0.876117 -1.223061 0.603045
-0.423498 1.458442 -2.151578
1.471837 0.340151 -2.297636
1.095351 -1.034752 0.831745
0.674268 -1.338784 2.106646
-1.007844 1.110662 -2.596511
0.594338 1.370093 -2.363978
-0.679658 -1.332356 0.393644
1.335046 0.718678 -1.690729
-1.308725 0.684019 0.670909
1.281281 0.774132 -1.712737
-1.214989 -0.877455 -2.301108
1.457917 0.257558 0.273450
-1.033215 -1.078139 2.173171
-0.680776 -1.289794 1.110732
-1.490404 0.107961 1.912351
0.673360 1.318403 -1.401989
1.195644 0.890902 2.315872
-0.563467 1.338264 -0.737765
-1.469116 0.327262 2.114686
-0.957055 -1.176668 -0.172946
1.488470 0.026149 -1.392854
-0.350528 -1.464133 -1.438447
-0.346136 -1.447042 0.406007
-1.369676 0.496643 -2.525938
-0.823690 1.246020 2.580337
0.827556 -1.266899 -1.371219
0.318794 -1.431787 -0.986251
1.483385 -0.151440 -1.600191
-1.025518 1.088930 -2.981952
1.302758 -0.869235 1.155301
1.278410 0.777349 0.543317
-1.239367 0.778529 1.857867
-1.417772 0.323172 -2.753935
-1.418342 0.550019 2.571934
-1.092163 -1.123273 -1.014678
0.726286 1.306013 2.478419
0.992494 -1.108984 -2.357211
-1.433839 -0.487458 1.463523
1.230221 -0.839126 0.476149
1.446793 0.035352 -0.850853
-1.046997 -1.099941 -2.525146
-1.263004 0.782529 0.628419
-1.516761 -0.049109 -2.841361
-0.057218 -1.486623 0.007693
0.221697 1.491527 0.625251
0.431351 1.456743 1.395142
-0.443210 -1.455212 2.948008
-1.479276 -0.210694 -1.439438
0.163803 1.491440 -1.065661
-1.516682 0.156121 -0.953128
-1.467000 0.372792 1.389496
-0.543751 -1.373929 2.590916
1.472404 0.027129 2.845942
-1.253789 -0.753097 2.674868
-1.198263 -0.930488 2.276298
-0.035544 -1.487725 2.945864
1.153193 -0.975973 -0.744326
-1.402055 0.544681 2.689928
-0.811942 1.231610 1.566120
1.198124 0.902214 -1.989241
-0.772899 1.267239 -2.727209
1.338792 0.614391 -1.713096
0.489837 -1.441731 1.672507
0.552718 -1.462908 0.790181
-1.328275 0.749545 -1.653862
-0.080779 1.502713 1.451529
1.116277 1.025852 -2.152067
0.902273 -1.244687 1.931048
1.051450 -1.027591 1.764966
-0.148987 1.519582 2.835456
-1.096409 -1.060499 -2.098323
-0.080738 1.527230 2.439678
0.236446 1.489140 -0.953384
1.481861 0.196312 -0.503641
-1.355475 -0.720454 -0.189330
0.890747 1.215326 0.761424
1.479953 0.115415 2.968580
1.192440 0.929118 0.599753
-0.582183 1.398860 2.560295
-0.728536 -1.315932 -1.469831
0.433211 1.444291 -0.609530
1.133885 -0.973426 0.026997
-0.350717 1.439518 -1.062588
-0.720493 1.294765 2.861203
0.288640 1.437735 1.354101
-0.032101 1.524729 -0.126712
1.345795 0.676541 1.507828
-0.388632 1.377867 -0.195345
0.968021 -1.159565 -2.896648
-0.565468 -1.392281 0.259160
1.034938 -1.037842 0.751111
1.170468 0.914126 2.887245
-1.425307 0.406293 -2.755243
0.187779 1.478131 0.072582
-0.276329 -1.500145 -2.411071
1.478574 -0.276437 -2.106025
0.585764 -1.365389 0.662780
1.475956 0.339587 -1.610594
-0.609091 1.369588 1.495045
1.439520 0.252235 0.085192
1.428987 0.375510 -1.690723
1.321939 0.723847 -0.037250
-0.245145 1.456448 -2.994710
-0.517176 1.454294 2.176440
-1.213749 0.871090 -2.923930
-1.235796 0.854773 -2.957941
0.198233 -1.456324 0.669024
0.956341 1.182286 2.841126
0.814767 1.244568 2.135601
-1.065730 -1.080336 -1.487887
-1.332574 -0.651315 -1.819999
0.851782 1.235797 0.756673
0.894480 -1.195836 1.935826
-0.700765 1.308354 -0.827528
-0.990286 1.092504 -0.405872
-1.331780 0.730156 -2.307063
-0.649657 1.335128 -2.083041
-1.402454 -0.525592 0.410110
-1.136825 0.967439 -2.384063
-0.084063 1.530931 -1.787723
1.249851 -0.841314 -1.591938
-0.531830 1.420017 -0.336453
-0.464331 -1.399764 -2.726328
-0.839712 1.220702 -0.001374
-1.397465 0.602905 2.572046
0.126870 1.462777 -2.853218
0.017375 -1.510049 0.785909
-0.120900 -1.471198 2.015054
1.462841 0.210422 -1.125235
1.432859 0.560022 -2.210889
1.337637 -0.703844 -2.739961
1.154064 -0.975565 0.863418
-1.513288 -0.050781 0.313406
-1.495157 0.069008 -1.624230
0.565266 -1.374262 1.989704
0.963765 1.150072 1.413038
-0.851320 -1.237277 -1.341427
-1.514273 0.245179 1.520178
-0.058266 -1.477252 -1.530035
1.464563 0.279654 1.051605
-1.245089 -0.818667 -2.288730
-1.412811 -0.533036 1.153437
0.821176 -1.275846 -1.567353
-0.669033 -1.352589 0.434816
1.093627 -1.025959 -1.965217
1.142985 -0.978396 1.355802
-1.263638 0.828689 -2.634723
0.983679 1.148695 -2.007493
-1.021580 -1.099960 -1.895181
1.065921 -1.072321 -2.751938
1.348567 0.683300 1.470075
-1.363690 -0.504736 2.885715
1.134588 0.996077 1.670387
1.491098 0.252888 2.163792
-0.646155 -1.367480 -2.963954
-0.630976 -1.360912 -2.292780
-1.210515 -0.895884 0.354122
0.945369 -1.138593 2.867213
1.274831 0.715174 0.964278
1.199380 0.932846 -0.755180
0.973228 -1.104720 -2.123104
-1.488147 -0.035143 -2.082986
-0.203223 1.462531 -0.823481
-0.106823 -1.528282 1.282861
1.180012 -0.922048 -2.809084
-0.546475 -1.384333 2.113066
0.398437 -1.471537 2.649309
-0.313350 1.508335 2.332899
-0.351247 1.445075 2.478161
0.976370 -1.132015 -2.907964
-1.132856 -0.995911 2.866754
0.150929 1.467048 -0.801857
-1.485391 -0.233838 2.215687
-0.600555 -1.418465 -1.879147
0.300785 1.474055 -0.320846
-0.843599 -1.235438 -2.735014
1.450949 0.401863 -2.759544
-0.493237 1.408905 2.659657
-0.687712 -1.339232 1.863640
0.894425 1.213754 0.178956
0.257663 1.471287 0.152749
1.051590 -0.986277 1.492528
-0.683842 -1.334131 -0.949987
-1.553111 0.011530 1.571216
0.357587 1.449467 -0.089950
-0.785286 1.230490 0.827504
-1.349809 -0.683600 2.788977
0.857791 1.272044 -0.172107
-1.495892 0.173797 -0.489572
-1.295001 0.836619 2.434495
-1.512257 0.227021 2.415483
1.195254 0.935359 2.954512
1.164022 0.918047 0.305178
1.468196 -0.342432 -0.934431
1.488805 -0.199161 -1.557660
-1.339465 0.672030 -2.795422
0.352372 -1.462433 1.360372
-0.839305 -1.248580 -1.599143
1.096566 0.996520 0.639845
-0.446750 1.455489 2.499554
-0.586316 1.363356 2.701282
-1.238792 -0.850508 -2.973539
-1.315879 -0.720788 -1.097550
1.301636 -0.683069 2.024268
0.368555 -1.416177 0.218671
0.930645 -1.172016 1.845052
1.139378 -0.928654 2.119940
0.470581 -1.438152 -0.344243
-0.739608 1.285858 -0.846102
0.338264 1.500337 -0.267400
-1.342420 -0.661854 0.916771
-0.562594 -1.401616 -0.797045
-1.098063 0.963021 1.649930
0.874756 -1.224029 2.423957
1.452598 -0.374257 -1.306133
-1.340532 -0.616639 2.789938
-1.449724 0.406577 0.736351
0.833133 -1.231844 2.269013
1.479379 0.225779 -2.376501
1.041920 1.094089 -1.491005
0.844362 -1.238043 -1.073886
-0.172288 -1.486969 -1.183067
-1.291533 0.759116 -1.968833
1.169031 -0.960902 2.209206
-0.890332 1.203563 -0.488327
-0.980421 -1.102661 2.778781
-0.986101 -1.117440 0.500834
0.604368 1.396939 -2.169632
-0.338836 1.472275 0.275428
1.314172 -0.773125 2.961271
0.621910 1.396627 0.391030
0.693890 1.321799 -2.988784
-1.503007 0.191009 2.598479
1.260460 0.817221 -1.590634
1.192763 -0.940885 1.131174
1.208043 0.880503 0.090481
-1.113257 -1.001899 -1.047397
-0.792300 1.262864 -1.304163
0.507036 -1.426861 2.572559
-1.286668 -0.799995 2.471555
-1.148082 0.976549 0.078809
1.499886 -0.160891 -1.449029
1.381426 0.607670 -2.385948
-1.349464 -0.711010 -2.060542
1.459193 -0.097278 0.133510
-0.545005 -1.381484 -1.153020
-0.093681 -1.503792 -2.747591
1.467612 0.307410 -0.268996
1.495873 0.207054 1.477136
1.478725 0.338848 2.350171
1.499440 -0.074210 0.511704
1.475830 -0.182086 1.339753
-0.764751 1.304008 -0.815577
-0.385786 1.448529 -0.022571
0.898470 1.191024 1.377761
-0.722341 1.342752 1.365949
-1.036382 1.114658 -0.452842
-0.008064 -1.506455 0.262004
1.019308 -1.144287 2.543132
-0.024902 -1.532390 0.791986
-0.927352 -1.208940 0.855448
0.146657 -1.550037 1.707722
-0.109908 -1.496322 -2.308663
-1.479079 0.230466 0.137306
-0.787448 1.304114 2.756590
-0.294072 1.452485 -0.830038
-0.646973 -1.345437 -1.230443
1.446020 -0.380918 0.607248
-1.326204 -0.743007 -1.673283
1.243752 -0.775601 0.335671
1.499836 0.129790 -2.066088
0.409249 -1.446910 0.478761
0.904468 -1.191556 0.614275
-1.004209 -1.088860 -0.489597
1.340558 -0.588847 -0.703521
-1.262556 -0.793666 -1.527250
0.089332 1.521578 -1.014466
0.319006 1.473898 -0.009924
-1.406942 -0.518382 -1.514047
1.237458 -0.828918 1.697007
1.355164 0.661210 1.254211
-1.157524 -0.890179 -1.384165
0.179559 -1.443863 -2.415389
1.116407 0.991949 -2.998920
1.108777 1.008489 0.580313
-1.014094 1.130908 -1.731818
-0.225143 1.474949 -2.924505
0.491531 1.458125 -0.845488
0.465542 1.414220 2.771991
1.037427 1.094631 1.139657
-1.148248 -0.956521 2.146582
-0.578303 -1.419624 -2.131565
-0.436207 -1.428341 -2.560271
-1.481932 -0.294839 -2.930821
1.416230 -0.432176 2.733974
1.090512 -1.010991 -1.198784
1.454233 -0.401546 -0.242970
-1.187068 0.971993 -0.632858
1.054889 -0.999322 1.382742
0.126193 -1.486617 -1.140211
-0.810613 1.264259 0.212717
1.148979 0.912304 2.973494
-0.606066 -1.362280 -0.335619
0.964864 1.115824 0.307629
-0.404089 1.402797 0.015168
-1.490654 -0.011193 1.819117
-0.631101 -1.342334 -1.398962
1.333907 -0.660625 -1.977372
-1.251435 -0.839853 1.524559
-0.704715 -1.304135 -0.506291
-0.560184 1.426531 2.482356
-0.577456 -1.375945 0.864956
-1.414132 0.572837 0.386059
0.912525 -1.126080 -2.577258
-1.165381 0.926741 1.382471
-1.484578 0.304201 1.116242
-1.361142 0.622980 0.840432
0.559190 -1.372010 -1.392543
1.403238 -0.420388 2.680436
-0.715470 1.336586 -1.070069
-1.486332 0.231116 -2.086614
-0.402810 -1.445902 2.923207
1.180258 -0.911268 1.477478
-1.481093 0.055417 -0.511279
1.158378 0.944702 2.615499
-1.001031 1.086118 -2.453296
-1.409570 -0.466876 -2.474033
-1.326802 0.753999 1.094706
0.562718 1.353667 -1.932168
1.478995 0.350092 2.502837
-0.584729 -1.419390 2.042155
1.508432 -0.069315 -1.161797
1.319549 -0.730423 2.333037
-0.605897 -1.355675 -2.742674
0.804542 -1.252400 0.291827
-0.045182 1.450744 2.613377
-1.077342 -1.048111 2.132298
1.383790 0.550615 -0.863560
-0.395472 -1.430159 -1.902777
1.475474 -0.278611 -1.736756
0.962281 -1.145617 0.087047
-1.453084 -0.319888 0.580638
0.375694 -1.495524 -2.803114
1.412975 -0.518887 -0.518691
0.314138 1.484411 1.982323
0.406808 -1.442583 -0.334026
-0.173345 1.490797 -1.984948
1.065996 -1.036267 2.729162
1.244622 0.869643 -1.402347
0.649433 1.349219 1.790570
-0.275433 -1.456996 -1.837235
0.685385 1.332034 -0.460964
0.821695 1.242456 -0.057465
-1.461362 -0.521949 0.003812
0.766611 -1.300221 0.098843
-0.177481 1.521817 -1.650315
0.820963 -1.284141 0.095493
0.531103 -1.412259 -0.109723
-1.305642 -0.714189 -1.747683
-0.883800 -1.168723 2.929149
1.439766 0.374439 2.193380
-1.013853 1.119449 2.325458
-0.130827 1.484359 1.113426
0.888605 1.210608 -2.040618
-1.128202 0.932949 0.408552
-0.926072 1.188177 1.928638
-0.207476 -1.500639 -2.767581
-1.198670 -0.845669 -0.024941
1.288800 -0.779406 -0.623263
0.929992 1.207364 -1.727252
1.421498 0.563511 -0.730500
-1.448017 -0.326778 2.900985
1.514849 0.002712 1.339460
0.355720 -1.485777 -1.202778
-1.513460 -0.053159 0.632130
-1.532646 0.102625 -1.520063
-0.975010 1.137094 0.665063
-1.074331 1.077465 2.377000
-1.346197 0.626647 0.341261
1.489298 0.159741 1.400040
1.314892 0.752276 -0.279966
-1.483982 -0.049874 0.144744
0.873760 1.216383 1.170450
0.261063 -1.486800 1.874430
-0.231309 1.522284 0.956708
1.183786 0.834359 2.864952
0.140412 1.539830 1.918936
-0.921622 1.184006 1.662961
1.485712 0.324942 2.070609
0.960868 1.192241 -1.312734
-0.679621 1.366581 -0.407717
-0.545552 1.377470 0.386778
0.475073 -1.419555 -0.225682
0.825270 -1.256128 2.084747
0.517356 1.399278 -2.837589
1.080941 1.062430 -1.744947
-0.997049 -1.115927 2.290239
0.493081 -1.368634 -2.645399
1.438340 -0.339925 -1.638070
1.463170 0.061674 -0.892498
-1.272181 0.771185 1.504443
-0.150542 -1.499879 0.361084
0.708793 -1.306987 2.727628
1.378416 0.574608 -1.632750
-0.642426 -1.357753 2.232722
-0.364792 1.460662 -1.302519
1.353689 0.662055 -1.527010
-1.519707 0.107735 -0.009749
0.847475 1.287579 -2.572773
-0.132728 -1.499432 -0.694158
-0.083001 -1.507962 -0.865944
0.806033 -1.238574 -2.039391
-1.074064 1.044666 2.164769
1.504203 0.124098 -0.684662
-0.093417 1.485605 2.891521
-1.462396 0.293733 2.398248
-0.514897 -1.416996 -1.831136
-1.103612 1.005729 0.030733
-1.521044 -0.345014 0.610825
-1.499315 -0.225324 1.913763
0.788629 1.318660 2.313856
-1.096775 -1.078179 0.744108
-1.369976 0.552102 -2.789195
0.531522 -1.399370 -0.112341
-0.539393 -1.385882 2.308821
1.147485 0.974111 1.284538
-1.479517 0.102242 2.220852
-0.443787 -1.436303 1.044479
1.277110 0.790739 -2.735790
0.400859 -1.452099 2.808040
0.270569 1.483537 2.508111
-1.508065 -0.024446 -2.240523
1.410409 -0.545964 -2.323853
-1.351207 -0.647935 0.234471
-1.353854 0.708755 1.542305
1.459743 0.065757 -0.706961
1.019856 1.121056 -2.181707
-1.331385 -0.717603 0.063337
-1.492808 0.061360 -0.974603
-0.981818 1.122817 -0.889368
1.334875 -0.694919 0.869913
-0.748963 1.319891 2.313649
-1.427521 -0.336583 0.351550
-1.371130 -0.624291 1.125615
-1.473441 -0.253889 0.959682
-1.509200 0.214143 0.306877
-0.765815 1.249191 -1.135451
1.296218 -0.840887 -0.733235
-1.404374 0.452802 -1.105777
-1.508535 -0.263604 2.504989
-0.832886 -1.250916 1.959712
1.357851 0.607734 0.476084
0.298524 -1.468598 2.473461
-1.506042 -0.122770 2.318452
-0.806079 -1.224820 2.566166
0.205130 -1.503125 -1.669357
1.066813 -1.076549 1.305018
-1.174498 0.948340 0.655347
0.563849 -1.383160 1.402984
-0.082263 1.485896 -1.419724
-0.788103 -1.258252 1.168854
1.207680 0.910938 -0.541029
1.493121 0.185424 2.004551
1.257243 0.840844 1.772194
-0.637140 1.366975 -1.731854
1.491098 0.297973 -1.896868
-1.030159 -1.110110 1.306390
-0.597915 1.347032 0.302849
-0.120309 -1.443938 0.343235
1.466196 0.442139 1.515092
0.307901 1.433346 2.129825
-1.236905 0.817425 -1.566217
-1.101406 1.012199 0.333237
1.004696 1.073416 1.973728
1.487879 -0.050876 2.236765
-0.309487 1.449985 -1.275544
-0.261742 -1.461812 -2.375077
0.280373 1.478069 -1.603060
1.074506 -1.041196 2.672997
-1.139154 0.964271 -0.225122
1.220864 -0.872411 -0.488557
-0.836903 1.263127 -2.921494
1.534466 0.065184 -2.693912
-1.499387 -0.154276 1.012176
-1.522082 -0.236690 0.538962
1.107040 1.037781 0.453170
0.146979 1.460947 -2.338063
0.304822 -1.452494 -0.887633
1.451504 0.336894 1.874149
-1.526069 0.102707 -1.950533
-1.457190 -0.286460 2.296124
-0.546984 -1.349675 -2.271130
1.459181 0.342975 -1.985104
-1.257292 -0.751613 -0.133500
1.472536 0.033005 2.671799
-0.139515 1.479235 -1.022714
-1.505917 0.001018 0.949308
1.290486 -0.808215 0.532028
1.061634 1.076143 -2.102264
0.724491 1.292726 -1.510999
-0.720485 -1.301640 2.580917
-1.064903 1.064025 -1.891022
-1.074253 -1.050114 1.170059
1.504667 -0.025116 2.788167
1.451066 -0.111177 -2.282964
-0.898483 1.165768 -0.604908
-1.487616 -0.025478 -1.656407
1.197711 -0.810068 -1.670631
1.265014 0.826846 -2.286085
-1.406751 0.440442 0.897307
-1.092816 1.040497 1.478061
-0.419999 1.460535 1.060763
1.481238 -0.043070 2.547939
-0.161335 -1.505371 -2.125927
-1.155001 0.962156 -1.080928
0.708994 -1.308858 -0.932563
-1.482918 0.106655 -1.607507
1.060445 -1.081531 -2.146770
-0.162794 1.488230 -0.079779
0.258133 1.506117 2.006638
0.016865 1.462783 2.727238
-1.461893 -0.359443 -2.223956
-0.378112 1.410539 1.938943
0.909218 1.201932 1.947487
1.510255 -0.044780 -0.666131
1.238556 -0.899575 -2.339822
-0.978497 -1.118313 2.940048
1.155535 -0.932373 0.933558
1.373798 -0.595576 2.893174
-0.661636 -1.321408 -0.098067
-1.516338 -0.168592 -0.628842
1.094916 -1.021993 -1.516887
-1.355339 -0.615383 2.901432
1.057889 1.080221 -1.480456
-1.003015 1.111374 -2.857423
-1.403514 0.497568 0.074810
1.382238 -0.596659 -0.737697
-0.804163 -1.255001 -1.431705
1.047321 -1.071038 0.807649
0.069071 -1.510819 -0.814388
-0.544024 1.371060 -0.586495
-0.288048 -1.437626 -2.861726
0.504586 1.410293 0.534426
-1.248043 0.803091 -2.267574
0.513547 -1.404484 -1.717171
-1.150771 -0.972251 1.302707
0.655011 -1.298011 -1.120544
-0.056477 1.514947 -2.020739
-0.001742 -1.482368 0.464545
0.443199 1.439138 -1.710573
-1.421705 -0.409781 -1.374131
-1.362532 0.608450 0.728036
-1.445479 -0.535175 1.439171
0.980760 1.133645 1.437958
-0.982006 1.171624 -0.106540
-0.747034 -1.295084 -0.274219
-1.402625 -0.531784 1.725871
-1.437186 -0.461492 -1.841792
-1.508887 -0.107560 -2.086785
1.423228 -0.524823 0.988170
1.372793 -0.598251 -0.542958
-0.988789 1.189233 1.259991
-0.900815 1.216010 -1.460399
-1.383003 -0.491896 -1.050769
1.233454 0.845305 2.380066
-0.491890 1.417788 -0.470061
0.175206 1.483460 0.545721
0.241656 1.494111 -2.359907
-0.966492 -1.140911 -1.927025
-1.114720 0.972631 -2.784674
0.714158 1.340364 -0.453775
1.144268 -0.952779 2.933520
1.046689 -1.060752 2.243239
0.959371 -1.128990 0.797453
-1.168645 0.972221 2.166579
1.404518 0.518066 0.565016
1.156706 0.922174 -0.787387
-0.246218 1.468683 -1.958722
0.279875 1.429014 0.918292
1.037143 -1.045997 -1.841692
1.471486 -0.129804 -0.495429
0.616524 -1.370631 1.954811
-0.205445 -1.503837 -2.224624
-1.284844 -0.793043 -2.225871
0.191848 -1.512541 -1.653586
1.426490 -0.501541 0.311504
-1.200711 -0.883158 -1.489659
0.852620 1.243759 0.019188
0.768243 1.284902 -1.188104
-1.268256 -0.734092 0.037453
-0.732128 1.283423 -1.334211
1.267579 -0.801057 2.880074
-1.143614 -0.956131 -0.043693
-0.673578 -1.356556 1.461861
1.514433 0.050500 1.203279
-1.462781 0.005173 -0.056644
-1.367421 0.631634 -1.566828
-0.415723 -1.446132 0.064310
-1.131059 1.008981 1.085830
1.508620 -0.222528 -0.240484
-0.712973 -1.309483 -2.508449
-0.819097 -1.295899 -2.892101
1.301232 -0.722559 -1.032739
1.478402 -0.041212 -2.098656
0.485233 1.421686 2.437141
0.564632 -1.387855 -1.945004
0.786188 1.289058 -0.634304
-1.486215 0.421358 1.272465
1.207639 0.890364 1.892530
-1.070351 -1.053734 -0.133721
-1.457964 0.288353 -1.913190
-1.011365 -1.054964 -1.374629
-0.657262 -1.340841 -0.486189
-1.115390 -1.044403 -0.812432
-0.408634 1.442216 -0.907963
0.783324 -1.292119 -2.208877
-1.441576 -0.492874 2.479862
-1.515803 0.096450 -2.821460
1.507500 -0.116533 -0.359987
-0.306558 1.472062 2.881929
-1.441769 -0.255800 0.958344
-0.610611 -1.352828 -0.867536
1.063919 1.060995 -2.123414
-0.911156 1.175407 2.783236
0.476115 -1.422504 -2.916082
0.122909 1.528954 1.088325
-1.530804 0.068403 2.280825
-1.021690 -1.095940 -2.849037
-0.727112 -1.329223 1.351049
-0.198791 -1.467149 2.993027
1.014835 -1.138110 0.837855
-1.150419 0.922781 -0.511926
-0.407406 -1.475868 2.246404
-0.158669 -1.495329 0.325075
-0.465560 1.423268 1.496645
1.465506 -0.301008 0.526674
0.972022 -1.111206 -2.770253
-0.370689 1.439766 -1.721130
-0.672499 -1.314005 -2.527419
-0.303022 -1.488444 -2.359873
-1.382491 0.637069 -2.907567
0.958839 -1.105101 -0.473010
-0.568184 -1.424413 -1.928090
-0.815191 -1.261632 2.134179
0.275023 1.482758 1.500225
-1.231178 0.806428 0.439062
-1.404188 0.625667 -0.065872
-0.153211 -1.489095 -1.464788
-1.119405 -1.034339 -0.150291
1.308525 0.775488 0.847376
-0.539025 1.432496 1.693373
-1.461595 0.246703 -2.509908
-0.131136 -1.492661 1.250788
-0.061399 -1.492911 1.456379
-1.512129 0.094212 0.353833
1.116370 1.006140 -1.714085
-0.399414 1.466229 0.235108
-0.044333 1.521476 0.016229
0.272147 -1.436595 -0.145739
0.655327 1.385599 -0.236161
-1.482973 0.330640 -2.335047
-0.723777 -1.315672 -1.902645
1.468746 -0.341874 -2.416007
1.489899 -0.006530 -1.545133
1.451159 -0.441790 -1.419139
-0.296069 -1.467219 -1.529545
-0.039298 -1.508826 -1.734426
0.091698 -1.493697 1.412532
0.972057 -1.126726 1.911392
1.433910 -0.457838 -1.037345
-1.472045 0.517784 -1.169227
-1.291491 0.750170 2.064194
-1.454256 0.377141 0.743543
-0.793543 -1.259197 -1.239370
0.226918 -1.461479 1.281674
1.041481 -1.109890 -0.932443
-1.458863 0.418296 0.519334
-0.974121 1.133471 2.955804
1.513612 -0.149378 -1.190434
0.175350 1.503279 2.583156
0.258769 1.471799 -1.076086
-0.324237 -1.435553 0.241720
0.646736 1.361641 -0.240097
-1.208318 0.877608 1.698957
-0.390248 1.450607 -2.633444
0.726117 1.306361 0.762734
-1.334016 -0.723717 1.564002
-1.061916 1.067984 -0.167131
-1.454184 0.354371 -2.368244
0.493089 1.385010 -1.531170
0.179269 -1.509336 1.078034
-0.597275 1.395607 2.372624
-0.824380 1.259051 -0.470348
-0.024264 1.455543 0.362472
-1.373445 0.599673 -1.629690
-1.455351 0.337899 -0.526720
-1.462703 -0.275291 -0.979261
1.483606 -0.314659 0.933153
1.251553 -0.856003 2.908194
-1.163277 -0.959152 1.879821
1.482566 0.366336 -1.847012
-1.140101 -0.957588 0.466072
1.267174 0.787374 -2.601530
-0.380525 -1.462002 -1.518507
-1.144795 0.954440 -1.966694
0.807074 -1.302426 -0.986727
1.393238 -0.522566 1.072884
-1.322568 0.757055 -0.003640
-1.437975 0.364356 2.597456
-1.297723 -0.818446 -1.723507
0.504558 1.455583 -0.814745
1.340590 -0.656735 -1.020885
-1.390645 0.622693 -1.584218
0.738037 1.292166 2.959025
0.120773 -1.516803 -0.676647
0.285730 1.472664 2.643054
0.915149 1.152129 -0.657159
-1.323518 -0.556864 -1.775450
-0.708991 -1.316011 -2.284762
-1.363994 -0.636143 2.133379
-0.845587 -1.281659 -2.807414
1.124088 0.996090 2.786368
-1.503879 0.220820 -0.490853
-0.933384 1.170135 -1.515754
1.472891 -0.259524 0.704677
1.446667 0.478171 -2.202522
-0.427332 1.382400 -2.567127
1.408177 -0.541114 1.966700
1.475754 -0.156136 -0.451975
0.696201 -1.357847 0.109529
1.327736 0.689843 -1.939824
-1.407561 -0.569572 -2.631455
-1.225648 0.882929 -0.793343
0.515974 -1.385905 0.036878
1.402923 0.509096 1.592584
0.484952 1.415754 0.006312
-1.514309 0.109745 1.695042
0.833196 1.266775 -2.307403
-0.532603 -1.393713 -2.616223
0.643136 -1.323761 -2.046834
-0.440859 -1.451950 1.632073
-1.386445 0.554736 1.555981
1.062927 -1.020289 -2.151793
0.949230 1.124195 -2.814068
-0.092752 1.508338 1.111692
-1.477587 0.100743 2.131691
1.425126 0.585446 1.524646
1.222952 0.840013 -1.783206
-1.197784 0.900437 0.502607
1.405679 -0.525488 1.544194
1.243204 -0.810164 -1.465028
-1.421315 0.310015 0.166325
0.938406 1.173271 -1.113238
0.649814 1.337461 -1.646547
-1.082850 1.050936 2.817536
0.377750 1.455871 2.475492
1.314663 0.749328 -0.325994
-0.707411 -1.364046 -2.179332
-1.292783 -0.726915 1.367444
-0.383728 1.454202 -1.465793
0.259685 -1.440562 -1.988893
0.240292 -1.478031 -0.710826
-1.505274 0.088437 0.179099
1.213778 0.853095 -2.415358
1.318463 -0.735813 0.430479
-0.731415 -1.296998 -2.907910
0.033314 1.476018 2.351214
-1.154182 -0.955472 2.524450
-1.236610 0.842025 1.398425
-0.993248 -1.120113 -0.200704
-1.459507 0.250543 -1.470622
-1.467682 0.141068 1.464673
-0.135198 -1.492503 2.590783
-1.123335 -0.966096 -2.048798
1.340659 0.745304 -0.205068
1.386350 0.600234 -1.108430
-0.514199 1.423023 -0.859549
-1.350904 0.633476 -0.565453
-0.236778 1.453577 2.710778
-0.851836 -1.200899 -1.448177
0.508400 1.411674 -0.043945
-0.420722 -1.437448 2.708925
0.215562 -1.476889 -0.143659
1.079482 1.057165 2.181597
-0.896212 -1.231965 -2.647411
1.481333 -0.367856 2.718183
0.526124 1.407476 -1.874813
1.255972 -0.818011 2.879610
-1.182122 -0.931496 -1.946539
-1.262286 -0.806770 -0.333804
1.434044 0.494020 -1.148313
-0.023312 -1.502692 -0.400611
-1.447516 0.200565 -1.496852
-0.270898 -1.475865 2.791904
0.550756 -1.403794 -1.165650
-1.519055 -0.232059 0.919649
-0.125509 1.481298 -2.175315
0.938399 1.139118 1.946325
0.791729 1.288223 0.255048
1.010852 -1.120108 2.876677
1.050558 1.065657 -0.459587
-1.130436 0.986173 -1.827313
-0.770532 1.308386 -0.923886
0.979866 -1.114201 1.421794
-1.478291 0.204749 0.954639
1.489062 -0.028014 1.670084
-0.122847 -1.513449 -2.559178
0.893136 -1.207736 0.482213
1.205500 0.867202 2.593012
-0.034615 1.487073 -2.352588
1.009160 1.150067 -2.433988
-1.482309 0.341643 1.299626
-0.300369 -1.486090 -1.108905
0.723980 1.332766 0.951475
1.052781 1.121189 0.272307
-1.106664 -0.974006 2.916400
0.181775 1.507523 2.334339
-1.479821 0.189542 1.068437
1.430628 0.473536 -1.429952
-0.638605 -1.367120 -1.428551
-1.444591 -0.384476 2.293463
-0.899642 -1.196680 0.512046
-0.238738 1.470684 1.735691
-0.251959 1.434837 -0.300815
0.481224 -1.445189 -2.381558
-0.290845 -1.454520 -1.003881
-1.348246 -0.746596 -2.033105
-1.020247 -1.084675 1.690997
1.267649 0.843404 1.203072
0.900693 -1.144289 -2.469522
0.185024 -1.493862 0.728312
-1.275980 -0.827510 2.244813
1.322194 -0.737485 1.184186
0.721606 1.274814 0.066671
-0.580250 -1.365324 -1.128820
1.459675 -0.346858 2.322580
-0.559239 1.401209 -0.463171
1.499086 0.137473 2.132361
-0.133351 -1.496926 1.697999
1.535024 0.062309 1.897362
1.078648 -1.111864 2.938785
1.414904 0.532091 1.492551
-0.867808 -1.242264 -2.795754
-1.084721 1.046196 -1.767396
0.441030 1.456090 -2.788829
1.208077 -0.904901 -1.860519
-0.030127 -1.489846 -2.631363
-0.795813 1.262922 0.009702
-0.320402 1.446017 -2.830763
-0.135519 -1.542396 -0.164525
0.783659 -1.295780 2.393045
-0.311619 -1.452818 1.491456
-0.955072 -1.138522 2.663736
0.213212 1.502334 -1.640119
0.905913 -1.211251 0.186515
0.001444 -1.520722 -1.088523
-1.476336 -0.164771 -0.037081
-1.506144 -0.115637 0.342455
-1.355238 -0.636970 -2.782883
0.690066 -1.298196 -1.600463
-0.065425 -1.468867 1.228637
0.942335 -1.191959 1.637568
-1.500280 -0.066423 0.416708
-1.072012 -1.068033 -1.375026
0.927706 -1.191847 -0.569495
0.165989 1.521366 -2.423779
-1.377852 0.511390 2.719078
-1.101908 -1.044428 2.212065
1.312623 -0.779182 -2.606386
1.481922 0.152950 -2.001056
0.359646 1.463204 0.486567
0.157832 1.489408 -1.605420
-0.711703 1.363324 2.606404
-0.296290 1.471364 1.533543
-1.279150 -0.804943 -1.360251
1.118596 -0.978207 -2.963392
-0.969868 -1.137204 1.796684
0.087186 1.468071 -0.455462
0.994249 -1.157858 0.854266
-1.009809 -1.116691 -1.278151
0.285847 1.470965 -2.142760
-0.955186 1.130269 1.051870
0.375000 -1.460420 -0.298052
-0.104155 -1.488456 -1.588982
-1.338000 -0.678347 -2.174232
0.901859 1.171094 0.482878
0.495532 -1.416415 1.353300
-0.532840 1.409378 -1.296678
0.209711 -1.507979 1.410855
-0.893780 -1.202931 -1.901267
-0.134223 1.481044 -0.969506
0.338299 1.424590 1.469294
1.044823 1.109720 0.960861
0.068643 1.512267 -1.376858
0.817683 1.255281 -2.267190
-1.097675 -0.988702 -2.745159
-1.195992 -0.861969 2.027491
-1.268176 -0.764439 -2.549148
-0.955515 -1.183195 -2.310929
0.597535 -1.381481 -1.573736
1.261120 -0.764302 -0.325982
0.196306 1.500792 1.738722
-1.273953 -0.780368 -1.515118
1.317203 0.713566 0.261049
1.108948 1.039766 -2.457765
-0.859151 -1.250305 -0.212934
-1.514498 0.131728 -1.934166
0.082913 -1.492612 -1.732851
-1.351667 0.688759 -0.799029
1.048001 1.080065 1.568086
1.038035 -1.072432 1.463919
1.295630 0.742717 -0.510162
0.560339 1.388308 -2.287973
-0.245377 1.452340 -1.315850
1.494650 -0.035435 0.032135
-1.325029 0.754587 2.216471
-1.477957 -0.020782 2.809528
0.181074 -1.463458 0.824826
-0.969225 -1.120060 -0.895881
0.846448 -1.306413 1.160721
-1.505527 0.139336 -0.982619
1.475498 -0.261734 0.752841
0.435923 -1.434420 -1.537401
-1.227070 0.863930 -1.398068
-1.082827 1.002742 -2.548646
1.345232 -0.632974 -0.479153
-0.595772 -1.361538 0.709047
-1.077883 -1.025283 1.732770
0.061229 -1.492092 1.862091
-1.401707 -0.559143 2.954667
0.786761 1.229900 -2.473466
-0.655384 1.409087 -0.041179
-1.406942 -0.545773 0.128247
1.459570 0.172727 1.827201
-1.352149 0.543163 -1.401849
0.063179 -1.489032 -2.583766
0.773939 1.298925 -1.117447
1.387196 0.591205 2.903567
0.775484 -1.286501 2.396647
-1.098832 -0.994432 -0.628518
0.664147 1.326861 2.257632
0.522275 -1.405138 -2.803473
-0.817997 -1.234349 -1.114776
-0.760869 1.289936 1.360871
-1.080539 1.073093 -1.671286
0.822900 1.227146 -1.809654
0.767835 -1.315677 2.170845
-1.520420 -0.091141 0.695724
-1.386970 -0.524446 2.934136
1.101075 -0.994990 -2.191982
1.508234 0.146026 -0.863230
1.346113 0.605430 -1.132720
0.792442 1.278712 2.280793
1.508593 0.295534 -1.468221
-0.832688 -1.268496 -0.879234
-1.014119 -1.124811 -2.142997
0.381439 1.471396 1.652406
0.891188 1.218718 -1.573780
0.923697 1.195813 -2.590078
1.391162 -0.414436 -0.389348
-0.520312 -1.409850 -0.651251
-1.253292 -0.743938 -1.934345
-0.668873 1.352471 -2.198415
-1.380195 0.611812 2.379343
1.289359 0.826874 -2.592933
1.504754 -0.019388 -2.404134
0.048613 -1.498555 -1.529716
-1.077092 -1.029007 2.717035
-1.289967 -0.790903 -2.487695
-1.491209 -0.037018 1.896089
-0.059368 1.503013 2.352313
0.230243 1.509369 -0.732794
-1.414868 -0.451637 -1.236634
1.362089 0.637424 1.064266
1.326097 0.684516 1.215808
-1.455306 -0.585084 1.679863
1.323596 -0.734178 1.983401
1.297856 -0.775791 -1.389627
1.522598 0.097445 1.121770
1.185414 0.949876 -2.190566
-1.313191 -0.753653 0.064388
0.876939 -1.228473 0.677321
1.412025 -0.400655 -2.029608
0.963112 -1.150358 -2.540961
-0.665250 -1.339434 -1.831522
0.453536 1.441676 -0.476468
1.358386 0.656163 2.327046
1.440117 0.447261 0.191487
-1.147335 -0.979806 1.490957
1.399578 0.326203 -1.955133
-0.096007 -1.487347 -2.364131
-0.338965 -1.424755 -1.562296
1.324409 0.723347 -1.116718
1.248534 -0.830259 0.288612
-1.522313 -0.205529 2.287460
1.237001 -0.861933 -0.443444
1.206261 -0.855576 0.112789
0.497297 1.427571 -2.972319
-1.100458 1.012102 -2.800128
0.976116 1.117832 -2.497385
0.234253 -1.486101 1.193965
-1.544999 -0.027238 -0.082852
1.369361 -0.654426 -1.842233
0.384701 1.459308 0.555597
-0.592283 -1.438725 0.267673
1.468274 -0.090830 -2.467204
-0.742914 -1.265381 0.842477
1.355987 0.628305 1.602929
-1.302314 -0.803888 -1.280674
0.621223 1.339129 1.124933
1.501971 0.291844 -1.801683
-0.738087 1.277798 1.540373
-0.149489 1.484361 2.470645
0.358299 -1.473085 -0.348797
-1.039657 1.058736 -1.532268
-0.162339 -1.471850 -0.604940
1.507494 0.155726 -1.499535
1.526678 0.145092 -2.992564
1.431066 0.271482 0.902740
0.289019 1.476489 -2.744840
-1.050882 1.069110 -1.737656
-1.172235 -0.938514 1.334697
1.483403 -0.143777 0.994350
-0.902365 1.168866 -2.560027
1.442379 0.515077 0.960328
0.521554 1.432584 2.583449
1.193022 -0.899703 -2.552985
-0.467598 -1.409285 -0.505871
0.367304 -1.439134 1.376603
1.034231 1.021566 1.006338
0.993913 1.129245 -1.640937
1.167251 0.988780 -2.021596
0.938456 -1.184333 1.705482
0.379993 1.445753 2.737468
-0.940809 -1.168847 1.605501
-1.475221 -0.152986 2.779227
-1.428732 -0.423086 0.629973
0.496926 1.418289 2.574593
-0.999303 -1.130703 1.142614
1.478216 0.412909 2.453309
1.492195 -0.060751 -2.030466
1.453137 0.257478 1.893391
1.437624 0.472701 -1.819525
-0.703238 1.383188 -2.835425
0.727552 -1.286147 0.105517
-0.072783 1.516905 -1.090489
-1.508665 0.265430 -2.738812
1.487737 0.160647 2.881826
1.305954 0.709704 0.998797
-1.174412 -0.944992 2.410873
0.502680 1.413800 2.994496
-0.516461 -1.418296 -0.648200
0.335635 -1.505513 -1.471578
0.874920 -1.209166 -1.896694
0.995833 1.094592 0.091123
-1.439445 0.407919 0.636485
1.423776 -0.492627 -0.165464
0.218467 -1.505711 -0.676488
1.111429 0.996160 -1.990365
-1.496426 -0.017137 -0.348842
1.299845 -0.699894 -2.488541
-1.409050 0.554394 2.190287
0.815043 -1.344959 -2.718584
-1.502584 0.023392 -0.716124
1.175949 0.940612 -2.399173
0.896762 1.191689 1.649883
1.413415 0.417839 -1.123578
0.505222 1.417401 -2.321366
1.171456 -0.927345 0.188948
-0.854604 -1.178197 2.497662
-0.117291 -1.529639 2.451869
-1.087919 -1.046328 -1.502094
-1.130153 0.978512 1.317958
0.322532 1.455772 -2.818295
1.339746 -0.683220 -2.208889
-1.497059 -0.144924 -0.003166
-1.501649 0.172558 -1.627461
1.514133 -0.039516 1.789571
-1.144562 1.012932 2.586433
0.938088 -1.228527 -2.974000
0.956612 -1.124229 -1.602505
0.158120 1.487112 -0.362680
1.244806 0.845929 0.378476
1.462596 -0.226101 2.495417
-1.334157 0.663739 2.351301
1.494783 0.027460 0.823021
-1.517466 0.019797 -1.455672
-1.116229 -1.040373 1.699727
0.239364 -1.479221 -1.784089
1.415470 -0.527514 2.791034
1.304494 -0.763871 -2.964961
1.395605 -0.554127 0.418623
1.461539 0.300276 -2.469617
-0.338900 -1.432991 -0.554403
0.243860 1.491241 0.809601
0.560068 1.385871 1.137591
0.448232 -1.401075 1.713417
-1.303330 0.740791 0.559966
1.324696 -0.763703 -1.492084
1.402595 0.393973 2.335519
0.484936 -1.418016 1.866644
0.980527 1.140362 -2.039686
0.647804 1.313831 1.959067
-1.480866 0.210639 2.835867
-1.179509 0.905052 0.823315
-1.474193 0.127986 -1.309169
1.380142 -0.554136 0.639563
-0.821967 -1.220277 -0.944790
-0.375495 1.411064 1.055679
0.700403 1.337320 0.268800
-1.351285 0.749295 2.576944
-1.445169 0.448852 0.707451
-1.216619 -0.892296 -1.716110
-0.146855 1.500060 1.350659
0.164383 -1.471017 -1.194730
1.227461 0.861006 -1.365654
-1.412698 -0.571173 -0.649340
-1.083108 -1.069326 -2.928020
0.389879 1.444406 2.814844
0.701058 -1.341323 0.193987
-1.156944 -1.032650 1.640963
-0.931500 -1.214923 -1.452887
-1.484980 0.023958 1.479709
1.259650 -0.805876 0.403023
-0.510977 -1.385624 -0.455135
-1.133668 1.046910 2.824015
0.110911 1.533878 -0.036938
1.362463 0.647974 0.944751
0.780638 1.336509 -2.907947
1.521197 -0.074173 -1.191269
-1.247391 0.820224 2.332149
1.228696 -0.894178 1.553754
0.708149 1.332171 0.220524
-1.359600 0.688970 2.400958
1.429326 -0.366911 -0.082677
1.244718 0.798131 0.399042
-1.271153 -0.843797 -0.707083
1.340521 -0.738292 0.720240
1.445414 -0.475544 -1.085991
0.869439 -1.257749 -0.687047
0.934827 -1.186143 2.797958
-0.874797 -1.240433 -2.332148
0.281825 1.454569 -2.368468
-0.181399 -1.477402 -2.740104
1.451101 -0.197193 -1.079733
-1.471129 -0.234794 -0.610625
-0.101586 1.449798 -2.432906
-1.374228 -0.685734 0.294786
-0.542556 -1.400392 0.499809
0.372337 1.406578 1.506160
-0.290265 -1.453713 2.855809
-1.313759 -0.798097 0.716113
-1.139921 -0.974618 -2.330095
-0.504206 1.396672 -2.468855
0.821057 1.216846 1.665281
-1.046635 -1.021892 0.902005
-1.288226 -0.779799 -2.028514
-0.779698 1.271570 -1.479840
-0.428985 1.418720 1.501442
-0.862488 1.229471 0.396935
-1.499114 0.074489 0.510000
1.456734 -0.235115 -1.739948
0.120751 -1.510429 0.774348
0.878459 -1.183985 1.623772
-1.484723 -0.053143 2.311513
-1.515039 -0.255589 1.420304
0.418288 1.429221 0.458254
-0.291179 -1.487491 1.039556
-1.361543 0.742374 -0.089331
-0.064659 -1.499227 -1.638611
-1.273404 0.817231 2.293242
1.152589 0.951021 0.195736
0.692174 1.308830 0.565910
0.551910 -1.373175 2.940653
-0.087672 1.491823 2.910094
-0.132494 1.496138 0.517866
1.359144 -0.637368 -2.796256
-0.832092 -1.254147 -0.623115
1.130893 1.003985 2.623760
0.943475 1.177212 -1.270160
-0.202198 1.469842 2.995612
-1.233227 -0.820887 -2.494095
0.026605 -1.461274 0.408685
-0.237372 1.513035 0.092696
1.024674 -1.076214 -1.467883
1.141229 0.931034 2.691643
0.389450 1.443267 0.715027
1.471506 -0.267663 -1.618630
1.024204 1.150549 -0.695711
1.143784 -0.976321 1.327377
-0.435744 -1.478271 -1.213820
1.343865 0.659769 2.277637
-1.536810 0.159822 -2.005957
-1.518729 -0.174862 -1.412969
1.372711 -0.616874 -2.130608
-1.344928 0.717700 -2.374927
-1.439865 0.500509 -1.198107
1.145701 0.982605 2.995072
-0.984402 -1.177710 -2.434024
0.366207 1.448038 -1.721987
1.315795 0.701546 -1.370299
