ply
format ascii 1.0
comment sphere cloud
element vertex 1500
property float x
property float y
property float z
end_header
4.003896 5.131245 3.746779
3.969154 5.424084 5.965350
1.715615 3.510002 3.521186
2.327422 2.104662 4.798938
1.442585 3.775393 3.735021
3.540045 2.240289 5.756037
3.654963 5.010801 3.387963
1.344246 3.370401 5.907071
1.278013 2.993069 5.138964
3.288758 5.320450 6.470388
4.697878 4.961336 5.247512
3.460397 2.414386 6.091161
1.204644 3.089927 4.800078
3.428952 2.061526 4.948180
4.083670 5.393249 4.029430
2.196223 2.466007 4.020771
1.573998 2.721177 5.637885
3.461341 5.770694 5.761260
3.698190 4.843337 3.329956
1.071699 3.475439 4.929838
2.448591 4.770553 6.744607
3.433681 4.216154 6.972273
1.226411 4.037627 5.964486
2.078171 2.223134 4.726373
2.920801 3.212269 6.855653
2.233215 2.125462 4.870942
4.727796 4.002904 5.939594
2.043824 5.649256 5.618203
4.550804 4.529544 6.213969
1.975342 3.388540 6.601175
4.640433 2.814736 5.242364
2.009975 2.383793 5.640755
4.789927 4.741028 4.493314
4.343964 3.011533 6.141156
4.058759 2.427206 5.591576
1.519129 5.216201 4.371355
1.328122 4.931735 5.543210
1.766873 2.438644 4.761658
1.493409 2.671667 5.094739
1.940305 4.464310 6.641645
2.843014 4.112950 6.990335
1.776599 5.197667 6.036825
4.108015 5.655136 5.338009
2.319115 5.305564 6.328721
4.637038 4.073868 3.897171
3.294323 5.341639 6.444275
2.427844 4.457870 3.074608
4.318280 2.916183 6.042764
1.539923 5.314795 5.413276
1.717945 5.166187 4.026539
3.794243 3.736756 3.179273
1.863998 3.466729 6.595122
3.723243 5.364729 6.321893
1.474904 3.472746 3.803639
2.322014 2.121775 4.978879
1.985010 3.954322 6.714555
2.066255 4.354058 6.707941
4.078243 5.085689 3.656409
2.659442 2.512214 6.269855
1.599104 4.774410 3.897744
4.191293 3.601195 3.435580
4.003181 5.585473 4.273637
3.546152 2.319569 4.008421
4.133789 3.808066 3.355436
1.810788 2.427972 4.698076
1.231807 4.851833 4.653221
4.833345 4.551965 5.602648
4.324743 3.585951 3.570706
4.985065 4.216273 5.226397
1.964301 2.998060 6.377438
4.350690 5.046403 6.032008
4.921151 4.424819 4.451055
4.862427 3.452504 5.556769
1.497615 2.737837 4.596839
2.069763 4.901209 3.470736
3.106994 4.132608 3.036192
1.694813 4.774190 6.279283
2.450157 5.882913 4.725821
3.030649 4.548521 6.927670
1.736257 3.113012 3.791477
2.608678 5.831602 5.740248
1.293741 3.105507 5.540720
1.987096 3.192315 6.474750
2.275819 5.136629 6.482006
1.770141 2.472200 4.518772
1.067082 4.217215 4.637741
3.423965 5.685243 5.939928
3.488715 2.140216 5.406266
3.955427 2.306213 5.419359
2.729563 2.533505 6.355160
4.766302 4.796856 4.605967
1.522773 4.208042 6.351443
2.733935 3.768681 6.979160
3.996169 5.084730 3.656649
1.837331 4.133915 3.352736
4.482146 5.266792 4.521759
4.130908 3.976958 6.664997
3.178001 4.723776 6.783437
4.829919 4.766022 4.821070
4.038594 2.320930 5.302278
1.916206 2.283915 5.067678
4.620603 5.186685 4.868786
4.317560 3.525399 3.572659
1.334479 3.068735 5.657565
2.267888 4.516140 6.816583
1.302264 4.726908 5.786877
1.887078 5.640053 4.634695
2.665432 5.913218 5.475188
4.028235 5.524741 4.244295
4.696095 3.297182 4.251722
2.478348 2.826703 6.556043
3.599942 2.852011 6.550950
1.728247 2.484060 5.238450
4.321669 5.104637 4.019094
4.523451 3.581569 3.821547
1.341145 5.128053 5.017420
3.388318 5.769386 4.209931
1.074203 4.074759 5.449374
2.817993 5.003514 3.248854
4.529640 5.108905 5.648324
1.201757 4.706808 4.466895
1.494206 3.478543 6.219689
3.944520 5.318723 6.210005
3.396261 4.686228 3.135656
1.970135 5.241490 6.173316
4.108704 3.219069 6.407916
1.568801 5.344545 4.671216
4.166535 2.928536 6.252977
1.707293 2.617217 5.689260
1.632345 3.875782 3.537984
1.859880 4.784808 3.565109
2.042526 2.347986 4.380580
4.515344 3.058507 4.147167
3.186168 3.687268 6.942037
2.642725 4.677185 6.838639
4.878833 4.502985 4.646384
4.936303 3.943290 4.540887
2.334920 2.279762 5.809312
0.989700 3.971971 4.856368
4.483505 2.802922 4.402580
2.551844 3.359805 3.147086
2.881814 2.093465 5.575508
1.102770 3.979905 4.522058
3.935623 5.739271 4.663311
4.609834 3.641806 3.875242
4.920478 4.603431 4.997188
4.827749 4.774299 4.824236
1.258383 3.654215 5.809930
2.764422 5.806600 5.776654
1.895643 2.310912 4.786345
1.941167 4.712363 3.485581
2.034536 5.706239 5.239413
2.111754 4.014782 6.766895
3.541397 5.164950 3.479429
3.776120 5.733446 4.447143
1.383076 4.265027 6.186486
2.844144 2.032836 4.751285
4.266195 3.132889 6.263168
4.967421 4.438231 4.899551
4.075443 2.853911 3.751121
2.448885 2.982985 3.372577
4.311703 5.570835 4.738068
3.126341 3.677850 6.997508
4.173712 2.456605 5.417468
1.818147 5.576038 5.387430
1.194397 3.486291 4.382581
3.651775 5.277885 3.613053
4.378795 5.242526 4.325996
3.073267 5.619839 6.177260
2.772927 4.543925 6.928258
3.319712 2.080774 5.535564
3.680852 2.545180 6.211008
1.454107 3.184168 5.951788
1.756553 4.661425 3.597006
1.116872 3.441271 5.293298
4.953589 4.124489 4.640162
4.140871 2.347189 5.259024
1.014777 4.134751 4.769793
1.053387 4.404768 5.400315
4.229451 2.378730 4.916568
1.882302 5.283546 6.109366
3.801681 2.846660 6.447330
1.849375 2.701561 4.016527
2.940508 4.424964 3.063436
4.329299 4.118988 3.520016
3.178079 5.719827 5.963193
4.237344 2.434840 4.553308
2.122539 5.681393 5.621688
4.910643 3.680990 4.489267
2.786950 5.915019 4.491389
4.520764 5.172937 5.501424
1.118008 3.591608 4.488532
2.983363 4.945949 6.782313
1.633721 3.344927 3.667744
3.577916 2.253144 5.770017
3.739048 2.206409 5.347625
2.192892 4.835481 3.396374
4.510974 5.132742 5.706550
4.235022 2.834306 4.007772
3.815226 3.162476 6.561321
2.694887 4.478085 6.914926
1.874127 4.099900 6.618965
4.696339 3.417906 4.080881
2.682286 5.940029 4.639140
3.187580 2.942230 6.715158
3.231603 2.574163 3.640878
1.266924 3.301100 5.716850
4.676145 4.847064 5.694780
2.721988 5.824493 5.677252
4.596004 3.895248 6.210430
3.763287 4.621636 3.272994
4.787778 3.736434 4.130105
1.009247 4.011247 5.035504
1.724685 2.577349 5.455168
4.204352 4.277956 6.578704
2.837520 3.926166 3.019140
1.828657 5.406364 5.862771
0.967065 4.221694 4.849669
2.127895 2.682399 6.222898
4.761952 4.889736 4.771020
2.685534 5.744750 5.877356
3.409336 3.820964 6.922462
2.335302 5.104132 3.525316
2.396059 4.895163 3.296897
1.616049 4.062795 3.511829
1.289739 5.038352 4.723060
4.437962 2.641898 4.868982
3.530567 2.574635 6.277863
3.586840 2.085642 4.949390
3.478567 3.300881 3.173727
3.266418 5.967428 4.647691
4.768060 3.144304 5.224648
4.886260 3.957175 4.290935
3.707419 5.835711 5.291453
2.621398 3.829004 6.945775
3.192964 3.082766 3.220851
1.114210 4.347365 5.696191
2.363005 3.980022 3.100320
3.362131 5.306861 3.548456
4.774400 3.098896 5.302290
4.895541 3.831096 4.539741
1.553397 5.348473 4.828283
4.019881 5.292353 3.790230
2.793965 5.526380 3.715332
4.687805 3.409789 4.087214
3.070673 5.498163 3.711501
2.463199 5.912619 5.079438
3.751928 2.579499 3.808359
2.746444 2.009020 4.938413
1.848314 2.660409 5.961287
1.749862 3.826723 6.576159
1.686175 5.517065 5.086971
2.187922 2.228620 5.194960
4.916919 3.484414 4.889526
4.060951 4.358380 3.326130
3.136110 5.966972 4.936926
1.022445 4.234508 4.872397
1.587603 2.754433 5.705215
1.736431 2.454728 4.982870
1.115155 4.253437 4.425211
1.253006 3.259155 5.654021
2.998717 3.915635 6.989553
4.312412 5.516413 4.675049
3.505965 3.067634 6.666925
2.254402 5.524795 6.062047
3.015492 5.920143 4.541668
1.792470 5.248553 3.943193
2.501960 2.238831 5.814112
4.097973 3.316617 6.542612
1.124480 3.324972 4.852503
1.919727 2.372112 4.720976
3.866460 5.659310 4.299390
3.966410 4.833203 6.575192
2.584349 2.036527 5.065397
1.422718 2.862442 4.524338
2.154715 4.348240 6.775148
1.608621 5.447830 5.067955
4.929282 3.631019 4.854641
2.146978 3.692637 3.251013
1.876498 4.985747 3.645756
2.415237 5.789726 4.390766
4.120783 3.190107 3.544824
1.632225 5.110981 4.043412
3.771647 2.898378 6.436860
4.508229 2.927629 4.265223
4.243261 4.850211 6.279861
2.485624 5.951748 5.131252
1.581550 3.720935 3.614069
4.780871 3.231676 5.571019
2.545499 3.400921 3.134627
3.688511 5.536202 3.886415
1.726213 4.649329 3.584949
4.336013 3.019085 3.809851
3.410786 2.415527 3.864840
3.220576 2.337468 6.130864
3.085817 2.407105 3.792077
4.082954 4.671714 6.508873
1.405974 4.689164 5.988098
3.930909 5.476718 4.029908
2.642219 2.067984 4.830636
3.671928 2.447751 6.067882
1.652071 3.625912 6.437260
3.554508 4.544220 3.152227
1.637308 5.208671 4.265708
2.353547 5.292241 3.572964
4.990573 4.307623 4.953843
2.201097 3.102487 3.352295
3.760148 2.941674 6.529925
2.628125 2.086564 4.525771
2.280830 5.778330 4.356725
2.668458 5.859684 5.629605
4.469419 5.116963 4.238745
3.868897 5.300866 6.297836
4.409494 5.363545 4.543147
2.117758 3.635870 3.220302
4.451717 3.719433 6.343128
1.589294 5.258015 4.406558
1.928580 5.383665 5.980312
3.849068 4.104156 6.791768
3.441675 2.247783 4.071737
4.074765 5.429225 5.859059
3.959408 3.327489 3.359640
2.399752 3.523212 6.854838
4.678090 4.662234 4.135417
3.733797 3.768918 3.201505
3.500043 2.640324 3.647797
2.105736 2.226846 4.877137
2.916921 2.429207 6.262826
1.581671 2.625119 4.541127
2.852446 5.980269 5.353728
4.677572 4.827137 5.673977
3.300760 2.028731 4.742504
3.578194 5.813430 4.463529
3.405145 3.504417 6.952165
1.708026 4.628136 3.601028
2.405699 3.945746 6.881936
1.309541 5.005967 5.052728
3.329493 5.182657 3.405647
4.059621 3.254364 6.510589
3.935516 3.422937 3.329909
4.036552 5.593920 4.343961
1.874028 4.716711 3.526736
1.478874 2.764614 4.536983
1.947594 2.538824 4.125698
3.860899 2.241788 4.548864
4.968839 3.982035 5.321217
2.207400 5.784290 4.538078
2.661930 5.959087 4.740247
3.271710 2.552886 3.620297
3.787603 5.203342 3.618762
2.083853 3.269213 3.370593
1.299920 4.313350 6.016742
3.698325 2.119764 4.790605
1.118401 4.242780 4.267756
3.597971 4.005052 3.083891
0.997937 4.051869 5.215742
1.635184 2.527698 5.060572
1.742621 2.536725 4.601704
2.208551 2.581932 3.876669
3.056971 2.020693 5.164187
2.207100 4.361471 6.812662
3.975066 5.509068 5.933747
3.781777 2.614343 3.784968
1.433253 4.050620 6.246716
1.526178 3.933466 3.642722
3.465963 2.845921 3.483963
1.400672 5.180222 4.760678
1.685363 4.807802 3.731999
4.502562 2.690012 4.733205
1.725201 3.709901 3.511868
4.123754 5.136900 6.180746
3.090368 2.540919 3.665644
4.475304 5.396944 5.093561
2.355203 5.680069 4.153831
3.288174 5.698633 3.948423
4.719946 5.061117 4.933235
1.450941 2.875250 5.465523
1.153753 4.205930 5.718312
3.898336 2.715909 6.218921
4.623526 4.413373 3.979517
1.489437 3.762513 6.234122
3.151766 5.905679 4.389268
3.842200 2.516340 3.923388
2.528507 5.567594 6.188123
3.670030 5.646895 5.966058
3.246735 2.040026 4.691916
2.648811 2.808756 3.431691
3.757318 4.520171 3.231920
2.088496 5.453978 3.944206
3.593605 3.303088 6.777528
1.056386 4.217330 5.411861
4.069297 4.366072 6.610091
4.250801 5.480417 4.634735
1.084155 4.477126 5.138977
4.893248 4.522175 5.091892
4.063079 5.165612 3.731714
1.017715 3.715441 5.210051
2.580335 4.768463 6.774997
4.723968 4.587087 4.141603
2.493475 3.686295 6.905110
3.358871 5.907719 4.554169
3.313092 5.912494 4.515737
3.276582 1.998074 5.165336
1.804288 5.589531 5.222081
1.516895 5.319111 5.265789
4.270674 2.490200 5.472645
3.991819 3.434277 3.362242
2.948026 5.464565 6.345462
2.382090 2.200592 4.433714
1.553346 5.369828 4.680577
1.892502 5.657099 5.213064
3.288802 2.844009 3.372302
1.225086 3.381637 5.698963
1.371315 5.124617 5.138069
4.629956 2.954001 5.597003
3.193320 5.897115 4.433874
3.710298 5.619296 4.082718
3.258241 2.124355 5.709322
4.679692 2.951077 4.911462
4.943484 4.054184 5.353477
1.649337 2.527947 4.721385
3.106311 1.977749 4.913748
4.527270 3.596297 3.754675
2.811865 3.022522 3.250749
3.296261 2.518037 3.678512
3.142951 2.689157 3.497899
3.605711 2.293467 4.148323
1.115639 3.496048 5.459056
3.077481 5.794480 5.832183
2.423545 3.234338 6.751147
4.744824 4.983040 5.119253
3.351944 2.065911 5.196666
3.152854 2.307747 3.990216
4.154473 3.903103 6.608221
1.531471 3.565334 3.718836
1.377566 2.891819 5.415774
3.250916 3.415332 3.074699
4.545698 3.702253 3.793351
4.181694 4.842166 3.618006
3.187018 2.347433 6.105946
1.512994 3.070851 5.957297
4.073142 5.373544 5.932147
2.723226 2.536015 6.301753
4.525402 3.233611 6.076131
2.623597 5.866333 4.358091
4.444216 4.541579 6.311743
2.210782 4.702398 3.334628
3.617251 4.641739 6.798024
3.972980 5.476155 4.084398
4.598145 2.865562 5.376504
3.889971 2.216368 5.297074
2.364867 3.353278 6.796546
3.234167 4.465794 3.050800
4.074742 5.306881 3.990580
4.329004 2.538156 5.500783
4.550282 5.203226 5.389440
3.883212 5.380966 3.873015
3.527889 3.666712 3.097573
3.810389 3.359725 3.283642
2.221489 2.870382 6.460484
3.219932 5.784304 4.096027
3.576985 5.865368 5.246272
3.923068 4.750130 3.414059
4.680306 4.841401 4.268903
1.821916 4.963603 3.706952
4.755067 4.110027 3.982109
2.593041 3.792866 6.924643
1.290146 3.760819 3.982914
3.738953 3.219694 3.285286
2.434020 3.123046 3.292581
2.173048 5.771537 4.514057
1.124686 3.219513 5.065108
1.821865 5.430956 5.767626
4.120999 4.290501 3.389090
4.584333 3.112900 4.185061
3.187026 5.578379 6.217396
4.789381 3.400548 4.336738
3.683029 3.710413 6.868240
3.606431 4.436039 3.124216
4.078568 3.063339 6.396728
2.045071 2.345941 5.592400
2.263480 5.174881 3.591194
4.605719 5.107400 5.337763
2.551742 5.781680 5.817405
3.256618 5.188228 6.555626
1.615794 2.804894 4.120187
1.154575 3.897004 5.712840
3.013283 3.116065 6.839886
3.228441 4.555346 6.915555
2.910021 5.928112 4.565712
4.767622 3.151657 5.475480
2.076785 5.662751 4.308761
3.498539 2.901359 6.589215
2.381231 5.636760 4.050175
1.481960 5.095399 4.334279
2.969084 3.512165 3.074570
2.933197 5.526451 6.229966
3.298881 5.414340 3.619533
1.778495 5.528726 4.466081
2.792221 3.015133 3.292255
4.323782 4.427004 6.453496
1.980501 2.282319 5.016820
4.406340 3.630386 6.340403
1.037066 3.677661 4.874463
4.152070 4.173806 6.610211
1.025922 4.203442 5.299965
3.635391 3.194673 6.677284
3.064106 2.012473 4.969530
2.787313 5.838849 5.685613
3.141788 3.746794 6.963464
3.621250 2.124238 5.409261
3.057191 2.327535 6.087118
4.758970 4.433460 5.878931
4.317795 3.384159 3.630811
3.853143 3.671220 3.207844
2.753631 5.937275 4.615315
1.093664 3.444232 4.978381
1.361466 3.852040 3.825726
3.692068 2.410944 6.001744
1.850316 2.526379 5.802945
1.502825 4.456331 3.735160
2.188079 4.581397 3.275852
1.062108 4.395101 4.961837
3.891655 5.757593 5.296923
3.562044 4.071211 3.103647
1.655466 5.488004 5.003089
4.885217 3.312260 4.875807
2.623883 5.928795 5.178544
2.585731 2.711323 6.474120
2.735884 5.303336 6.484878
2.133964 5.291318 3.829763
1.708877 5.531080 4.796319
4.090911 4.896131 6.394940
1.118781 3.347988 4.623205
1.913113 4.544410 6.584473
4.919513 3.526537 5.411704
3.747618 5.062818 3.481372
4.626865 4.805116 5.856592
4.424467 4.634426 3.782025
2.823201 2.079796 5.497067
2.716385 3.956615 6.980992
1.272421 3.070603 5.079300
1.827381 3.815822 3.377732
1.958685 5.487941 5.773699
2.044058 4.056106 3.265206
3.004635 5.729284 6.076438
3.128168 4.330271 3.035199
1.458031 4.720437 3.979499
3.985952 5.715325 5.347774
3.096166 2.203914 5.848867
1.506025 3.447366 6.260755
4.723818 3.237428 4.337643
2.078290 2.436063 4.172747
1.186136 4.767093 5.464172
3.681553 2.831204 3.536788
3.626502 4.770819 3.246613
2.702598 5.927609 5.458168
4.394264 4.879293 6.161261
1.370412 4.921724 4.300845
1.515085 5.331617 4.696484
1.478427 3.404644 3.826803
2.266563 3.764122 6.819647
2.345110 5.693369 5.851914
3.932066 5.781668 5.028243
4.141977 4.530227 3.455570
3.660558 5.797829 4.345323
3.166921 3.200109 3.189142
1.623655 2.652490 5.586733
1.153395 3.510117 4.482326
2.682673 2.086521 5.444232
1.605996 5.235648 4.347699
2.227170 4.015108 6.885622
3.127424 2.476164 6.219330
3.917356 2.447109 5.867764
4.423049 4.835740 6.145244
3.305434 2.493372 3.669942
3.173104 4.642122 6.896477
4.149884 2.629300 4.086284
5.003876 3.846249 4.997177
1.989200 5.625275 5.495964
1.782900 2.475032 5.481833
3.117905 5.669801 6.062325
2.149577 2.233501 4.464459
1.066090 3.543911 5.069836
1.442187 5.104950 4.352030
1.238630 3.261941 5.509133
3.170978 4.847232 6.835749
4.530140 4.333648 3.745299
2.746410 3.004830 6.699842
4.735302 4.557344 5.755865
3.329692 4.436571 3.061105
2.805437 2.131095 5.617797
2.960537 5.828007 5.848335
3.332360 3.719527 6.951515
2.833286 5.993465 5.264574
2.593987 4.035765 3.057007
1.627999 4.336809 6.416916
3.434056 3.117823 3.239308
4.365567 3.012530 6.106416
4.289328 5.572368 5.114783
4.014803 3.679712 3.327055
2.251978 2.139017 4.883847
4.790092 4.846871 5.277315
1.839408 5.583209 4.804184
4.568938 3.028621 4.263177
2.118842 2.448040 4.058310
3.030223 3.642329 3.031300
4.034890 2.415763 5.626611
2.994004 5.828975 5.848776
2.438844 3.209242 6.761747
1.029874 4.237749 4.843015
1.702087 5.334571 5.708602
4.461184 4.469915 6.292013
3.292808 2.012338 4.982670
1.715893 2.577386 4.362826
2.726097 4.055624 6.968857
1.156820 4.709528 5.415889
1.971809 4.137356 6.711536
3.483562 4.587945 3.136718
4.463806 3.526678 3.711070
4.869972 3.743711 4.352625
2.420876 5.889358 5.364745
4.696911 4.491726 5.850436
4.384766 3.757125 3.579419
4.704291 4.955774 5.216377
4.545707 2.746000 5.087670
2.806429 3.102291 6.768017
2.034251 5.639448 5.583393
0.985471 3.788557 4.788273
3.746736 2.171608 5.063113
2.777742 2.691056 3.449256
3.932023 2.321941 5.472926
4.913907 3.486396 5.112698
4.569900 3.053108 4.182842
2.451977 5.323425 6.440604
1.556876 5.037666 5.881355
4.953287 4.451025 4.955513
3.865532 4.503566 6.719368
4.269295 4.204598 3.456547
2.250465 2.212917 4.701310
4.360595 3.994984 6.464786
4.265661 2.459676 5.316873
4.833349 4.509917 5.595597
2.346399 3.613839 6.841210
3.849878 2.993017 3.455056
3.131979 5.716931 4.008864
4.982824 4.101515 4.658147
4.574849 2.912001 4.401862
3.671305 3.960048 6.870302
4.479950 5.351587 4.900596
4.806079 3.322466 5.611367
1.698768 5.465969 5.384144
4.235429 5.506116 5.492416
3.135638 2.566953 6.385954
3.221688 4.576814 6.916418
1.711364 2.512376 4.639455
4.242485 4.808454 3.669812
3.896954 2.493951 3.980344
2.786126 2.947804 6.745462
3.324782 5.958555 4.734799
2.790831 6.002939 4.858161
4.058775 4.368511 3.311262
4.322289 5.038322 6.067455
1.191599 3.365926 4.449710
2.110819 5.804850 4.975014
2.877121 5.387457 6.465056
1.157909 3.651014 4.247929
4.666990 2.820308 5.049670
1.229296 3.762324 5.920119
4.354076 4.657423 3.727658
4.751455 5.010471 4.807074
1.262905 4.790268 4.489644
3.442746 4.092869 6.960072
2.841513 3.941664 7.004334
1.766726 5.510114 4.595888
1.384603 4.026532 6.149915
4.324530 5.407301 4.723938
1.751567 3.587076 3.519607
2.494778 3.182810 6.748201
1.189389 3.411121 4.387017
4.453099 2.626185 5.302544
2.798517 5.713064 5.988053
3.108085 3.457494 3.120266
3.308060 4.662637 3.128286
1.123253 4.411473 5.519999
2.085923 3.488155 3.315752
4.383187 2.636539 5.547030
2.911876 5.683833 3.935885
3.036146 2.698798 3.516877
3.639289 2.129501 4.772360
4.372474 5.050433 4.029316
1.526407 4.434043 6.250155
1.874973 2.599667 4.118834
3.632641 5.345529 3.663970
1.916549 5.683938 4.872824
3.571418 2.422436 6.082719
3.948301 4.290389 6.717016
1.652695 2.878871 5.962824
3.694813 4.347379 3.169404
3.812302 3.028971 3.446675
3.038136 2.704156 3.462609
1.355082 5.084169 5.328324
2.938093 3.544719 3.057292
1.954710 5.031435 6.357920
3.872484 4.245033 6.798787
2.451561 5.803819 4.355196
1.977235 2.853107 3.726858
3.933106 2.985829 3.528390
4.145336 4.506671 6.558175
4.114273 2.349777 5.158272
3.187902 2.730154 3.473040
2.380594 5.874198 4.617247
4.584320 3.385973 6.083178
4.282939 5.350747 5.580325
4.245890 4.363365 6.515113
1.087565 4.415520 5.340424
2.001657 4.610463 3.443388
2.526868 2.462146 6.168911
2.798840 5.869686 5.712783
3.676586 3.089981 3.334948
3.735312 3.898493 3.178034
1.782430 3.277411 6.390480
4.960477 4.150492 5.138724
2.579996 2.871252 6.625426
4.812857 3.140641 4.917001
2.363213 3.373898 6.791195
1.333015 4.571758 5.937888
2.676607 5.947504 5.328392
4.190634 2.430181 4.665880
2.936947 2.135403 4.250589
1.858747 5.329431 4.014175
2.181270 4.808068 3.376818
1.399362 3.705351 3.884084
1.393364 4.667823 6.000297
3.855970 5.211030 6.372036
1.103561 4.411858 4.519608
2.271212 4.582805 3.241671
1.178239 4.677806 5.494659
3.200034 2.484709 6.305967
4.030498 4.123080 3.272586
2.487366 5.025188 6.642678
1.519775 2.889739 4.282351
3.201648 3.603905 3.086096
4.074540 5.607181 4.438052
1.043858 3.751108 4.640723
4.557354 4.082481 3.756513
1.401990 5.023360 5.703074
3.908836 3.190647 6.617201
1.713037 4.504566 3.568834
2.195949 5.621328 5.878080
1.560722 2.627456 5.299827
3.721302 5.732683 4.390481
1.054451 4.116658 4.471725
1.093024 4.448888 4.658501
3.575286 2.312237 5.904621
1.355152 2.927612 4.697752
4.612245 4.723311 6.007114
3.743288 5.869687 5.028820
4.426487 5.000517 5.965660
4.896495 3.579538 4.477355
4.302507 3.218385 6.309995
4.853111 3.394978 4.633036
3.164850 3.770972 3.018964
2.303654 4.776602 6.678412
1.572558 2.558675 5.030369
1.463265 3.672196 3.738664
4.184447 3.333634 6.422675
4.307067 3.226169 3.734046
2.073583 3.521972 6.680344
1.597377 5.325063 5.453299
2.164699 2.227633 4.568473
0.986618 4.151666 5.187403
3.275931 5.983762 4.838535
4.889309 4.417891 4.585197
2.218198 3.621169 6.802518
1.978230 2.420210 5.695895
4.533295 5.249163 5.284998
4.194406 5.100740 6.203229
1.751955 2.492055 4.455014
2.976701 3.706362 3.026369
4.936543 3.689513 5.215256
3.911263 2.289638 4.606537
1.581821 2.731422 4.379684
4.572236 4.732892 6.021391
3.009549 2.875864 3.363167
1.056136 4.426810 5.017938
2.820621 3.651216 6.932269
1.637602 5.483776 4.966058
2.931988 5.302054 6.525535
2.469932 5.782277 5.814537
3.017749 4.566245 3.059693
2.445609 2.963408 6.638864
2.859706 2.252886 4.009168
1.028111 3.710195 5.035849
2.844836 5.919451 5.542883
3.621353 2.134548 4.556381
2.199445 2.723176 3.696311
1.469897 2.915841 5.714993
2.448920 2.058172 4.998835
4.796951 4.008992 5.841221
1.488924 2.903796 5.653628
4.556790 5.149747 5.455850
3.170290 5.747051 5.983854
1.216135 3.192393 5.251026
1.313745 3.152417 4.332819
1.925237 2.829763 3.800086
4.740728 3.424622 4.202370
1.499092 5.133386 4.272631
1.378118 4.322673 3.865235
1.431158 4.770822 4.027873
4.933830 3.938689 5.494095
1.369280 3.283837 4.090812
1.719097 4.578414 6.393154
3.911128 3.392382 3.325969
3.945466 5.770875 5.118219
4.523476 4.552708 6.188885
1.230449 3.274261 5.565466
3.941235 3.346948 3.395465
2.513402 5.035132 3.391311
1.028161 4.230793 4.805395
3.834966 2.266955 4.536267
4.039965 2.906523 6.316267
1.442012 5.190866 4.477168
1.297475 3.290146 5.824090
2.972134 5.223132 6.597637
1.906292 2.810722 3.790885
1.807760 5.465289 5.744470
2.270111 3.988102 6.838285
4.147203 4.189071 3.381150
3.609467 5.862475 5.472748
3.944214 4.479943 3.360354
1.773143 3.574993 6.497753
1.362527 4.947790 5.623102
4.357089 3.975029 3.515221
3.561957 5.826651 5.626921
2.060195 2.661577 3.845377
4.842999 3.696073 4.391430
2.776566 3.597309 6.950987
1.705238 5.506710 5.132942
4.210684 5.555785 5.080478
1.113549 4.391708 4.424027
1.518841 5.352180 5.233850
2.325290 2.804575 3.633111
4.392407 2.853988 4.163317
4.087598 2.849837 6.267713
3.099109 3.879093 3.039375
1.649137 4.991755 3.907016
3.896573 5.730186 5.501704
4.696387 4.817698 4.397209
3.150154 5.955058 4.505033
1.665168 2.507378 4.694249
1.970005 5.721115 5.178824
4.288010 3.601769 3.502717
1.399310 2.891880 5.411936
3.628373 4.668183 3.227448
3.002331 2.130593 5.692203
3.616291 2.504228 6.213301
4.882625 4.671301 4.892521
2.254186 3.516676 3.209075
3.239590 3.002473 3.300728
3.732938 4.098462 3.161489
1.433845 4.372761 3.801934
2.875032 5.882639 5.695921
1.549763 2.646652 5.167662
1.890517 2.384780 5.463503
4.057406 5.459738 5.853262
2.866014 2.412593 6.196169
4.576978 3.439533 3.903068
1.402544 2.825987 5.279978
1.113535 4.356848 5.562676
1.210139 3.036828 5.119067
2.498354 5.860815 4.507414
4.537870 3.590819 3.830677
1.332651 5.130244 5.051927
3.556353 4.569402 3.160915
1.698450 2.834659 4.053994
2.513962 5.223288 6.510275
2.294998 3.410412 3.248872
3.197523 4.525871 6.922017
3.637807 2.110318 4.855402
4.510567 3.513072 6.228924
2.504480 4.306366 3.090199
1.616371 4.915680 6.104067
3.042973 2.011552 5.068785
4.165955 5.587956 4.696323
1.220278 4.882306 4.732296
4.440753 4.403548 3.672650
3.080565 5.971540 4.743969
2.008470 2.420673 4.244583
2.414616 5.148056 3.445256
3.998277 3.136558 6.508053
4.444191 4.117264 3.610825
2.885340 3.397163 3.102265
3.509497 2.527381 3.705208
2.777522 3.455041 6.936817
1.477467 5.251850 5.398496
3.689971 4.816709 6.667359
4.501921 5.308928 5.366606
2.710206 2.024206 4.874364
3.966714 5.600039 5.726452
2.231980 3.804476 3.140902
4.468956 2.972449 5.851469
4.473322 2.954321 5.853647
3.027898 5.967931 4.765486
3.919539 4.011375 3.196925
2.094740 5.601788 4.213405
1.214128 3.969904 4.103313
3.161312 5.780016 5.887717
4.891789 3.334407 4.814648
1.666353 3.097617 3.816837
2.076040 4.976456 3.510110
4.470201 5.281127 5.540520
1.871233 2.436961 4.466249
4.028904 3.995131 3.287132
4.124958 5.678246 4.761596
3.128295 2.081797 4.466504
4.269934 4.905653 3.678568
2.064549 2.459208 4.038377
3.468403 2.058022 4.945196
3.848647 2.629195 3.800141
1.650860 2.526539 5.007270
3.127196 2.099733 5.594299
2.719376 5.690758 3.978110
1.222777 3.613007 5.824217
1.227175 3.277178 5.523794
1.922967 5.626251 4.477735
2.062530 4.613487 6.682967
3.414963 5.207785 6.567393
2.104760 4.931447 3.468557
3.668475 3.924251 6.869281
4.732611 4.853055 5.465497
4.948695 4.244078 4.750884
4.367533 5.450442 4.882523
3.288205 4.081376 3.025146
2.587100 5.767804 4.172944
4.690166 4.905106 5.280861
4.039516 2.341842 4.510305
4.542237 3.342449 6.126820
1.955614 3.081415 6.448658
2.999309 3.261313 6.850770
4.502642 5.069669 4.315148
2.270343 4.778829 6.705584
1.305282 4.583760 5.873760
4.221177 4.717030 3.574959
2.596345 2.337674 6.038107
4.912272 4.188713 4.434698
3.203173 4.631076 3.076991
2.086227 2.473750 5.936727
3.679741 4.511092 6.792737
1.825480 2.402606 5.342284
3.337151 2.050459 5.402959
2.150550 2.307611 4.311743
1.133065 3.538323 4.454713
4.263066 3.661058 6.495536
1.152766 3.355854 5.393772
2.686991 4.799868 3.228077
4.228988 2.992274 3.770824
4.076847 5.286198 6.116757
4.601158 4.964679 4.393489
3.136750 3.636667 6.970256
4.555088 3.738042 6.228871
1.461410 4.316407 3.836548
1.381214 4.764369 5.874835
3.692472 3.732942 3.117343
1.463216 2.741940 4.676523
3.961281 4.969561 3.531614
2.476161 3.499017 3.150721
4.824422 3.170208 4.646064
4.917962 4.158747 4.362293
3.947196 5.741426 5.438018
4.953318 3.601803 4.762593
3.228116 2.427979 3.791886
3.942795 5.396496 6.129541
1.848486 2.755548 3.943821
3.073343 2.066883 4.587034
4.595145 5.091073 4.418210
2.271766 4.962709 6.565729
1.723386 3.410285 3.624636
1.089344 3.656671 4.551516
1.309455 4.846002 5.680359
3.617737 3.331397 3.237620
3.780745 2.898814 3.546816
1.748471 3.764028 6.523945
2.276025 2.377229 5.947635
3.157056 2.087078 5.591171
4.161176 2.527649 4.319727
1.112105 3.936265 5.683082
3.105498 5.706652 6.012496
4.634174 5.106458 4.613897
3.111191 2.089588 4.483786
3.094164 3.858900 6.975788
2.528524 2.548874 3.658143
3.868650 2.215702 4.735815
4.975117 4.438783 4.895053
2.950919 2.472801 3.730941
2.655623 4.535776 6.882979
3.063363 5.286556 6.565113
3.920941 5.377360 3.877856
1.725347 4.543449 3.545625
2.635145 4.921854 6.737579
2.336293 2.275978 5.793086
1.014208 3.649552 4.947909
2.955924 4.208853 3.006949
2.241503 3.201624 3.326316
3.546273 5.421430 6.266506
2.511533 2.558564 6.310654
3.674576 4.233598 6.863679
2.893576 2.939418 3.331840
1.181123 4.761788 4.865616
3.535891 5.901857 4.585800
1.058039 4.383225 5.149088
1.720679 4.665901 6.363768
1.979917 3.665442 6.705473
2.441030 4.063989 3.021464
1.465173 4.175773 6.288647
1.058703 4.126183 4.458226
4.184283 2.473929 5.513157
1.147898 4.643606 5.220359
2.091565 5.744270 5.185447
2.325835 2.142884 5.408773
3.393684 2.187238 4.364462
1.255517 3.959475 3.989888
4.103933 4.971526 3.705191
2.971621 5.894472 4.441599
2.088291 2.593267 6.087600
4.517121 3.650871 6.278724
1.187427 4.807686 4.900170
3.201883 3.571903 6.923931
1.798459 5.599809 5.444861
3.842169 3.562224 3.227720
4.118847 4.388153 6.623708
2.784905 3.395576 6.900973
4.837448 4.026695 4.235677
4.532754 3.498610 6.158277
2.688837 5.793462 4.189038
4.292246 2.710599 4.253850
2.333421 5.225144 6.480994
4.886979 3.636041 5.489847
3.587841 4.601713 3.198884
2.273109 3.436699 6.784157
2.884314 5.116532 3.363499
3.269849 5.010152 3.311817
4.808128 4.855254 4.994758
1.046220 3.596129 5.219665
3.529457 5.884572 4.456788
3.792677 2.252895 4.477070
3.685707 5.252244 3.606831
2.520231 5.525678 6.217773
3.127758 2.672069 6.493283
2.969276 2.986011 3.303154
3.692461 4.675025 6.703102
2.219776 3.712024 6.789774
3.461730 3.660094 3.098289
3.736441 5.458451 6.195489
2.720134 4.410019 6.930119
3.724065 3.419914 3.225896
3.410108 5.173540 3.419013
2.944210 2.168402 5.705461
2.212092 5.836017 5.216352
2.041225 5.041087 3.591304
4.208633 4.934468 6.271736
2.396859 2.123882 5.327752
2.785160 2.456728 3.707894
2.516327 2.313362 5.991313
2.941025 3.466258 3.061325
2.019577 5.656705 4.447291
3.415837 4.123353 3.068569
4.728366 4.660707 4.270384
2.970259 2.928917 6.677488
1.562559 3.233885 3.853105
3.098584 5.248911 6.583191
1.571783 5.363023 5.262452
2.302963 5.644621 5.916100
3.226775 5.575703 6.250021
3.096166 4.459107 6.962487
2.033708 5.719009 4.778954
4.986545 3.990410 5.425593
2.880218 2.252068 4.113105
3.959155 2.445384 4.165112
2.280196 2.938879 6.510889
4.672047 4.781521 4.117813
3.913063 2.909427 6.453768
1.406263 3.389710 4.000105
2.105158 5.634826 5.689868
4.425020 2.623987 5.186554
3.809457 4.397165 3.195390
4.497402 4.169970 3.699694
1.808690 4.384613 6.568593
1.641843 4.210660 6.489037
1.408807 3.426294 3.941590
4.156206 5.608699 5.202189
1.533155 3.221085 3.876127
1.309966 3.818698 5.992241
4.995466 3.951790 5.212176
2.867947 2.005611 5.226311
2.245355 2.218335 5.514623
1.839327 4.391217 6.587570
2.108573 4.100638 3.295212
4.457869 2.717747 4.469386
4.486547 3.744387 3.669552
4.208548 5.171632 3.920820
1.568797 2.770781 4.422456
1.539930 3.876509 6.371875
1.870962 3.229849 3.520751
3.676567 5.340739 6.292786
1.758711 4.525714 6.487574
4.231739 5.146520 3.858531
3.376035 5.886492 5.500370
1.624703 3.507518 6.357475
3.986429 4.352456 3.354174
3.988680 5.380664 6.037289
4.844453 3.546547 4.361871
2.790496 4.088843 6.975555
4.213497 4.547103 3.517321
1.229249 4.240119 5.888285
2.929659 5.748543 4.053667
1.447658 3.132458 4.065124
3.598995 3.474541 3.204040
3.800049 2.420428 4.026472
1.011681 4.239416 5.252328
4.492919 4.683208 6.169703
3.539408 2.085122 5.275756
4.154011 5.351724 4.061755
3.640063 2.723169 3.592708
1.628530 4.027380 3.547440
2.386366 5.265645 3.589731
1.214886 4.249445 5.873972
2.117205 5.408597 6.099442
4.828463 3.870278 4.205434
1.347461 4.743071 4.108636
1.838571 3.109188 3.633024
3.269363 2.080037 5.404122
3.644018 3.449060 6.801965
3.032271 2.027644 4.616010
3.204357 5.738227 3.987966
1.762653 2.655677 4.189540
2.275898 2.450544 4.012363
3.689259 5.704034 5.782693
4.456472 5.086470 5.949648
1.792757 4.487909 3.482427
2.391611 4.197228 6.892257
4.793169 3.340418 5.231863
3.494014 4.811811 3.204240
1.629100 5.420588 4.894788
1.531990 3.085119 4.084328
3.906665 2.226025 5.015295
3.954365 5.514429 5.834394
3.856039 3.082016 3.444611
4.975404 3.734504 4.851527
3.761086 5.772141 4.411714
2.101201 2.884609 6.429761
1.560282 3.957913 3.620822
1.368125 3.658667 3.943191
2.358081 5.833032 5.424923
4.494965 5.307199 4.810567
1.323083 4.927277 5.671025
1.746555 4.312418 3.455406
2.717294 3.483903 3.057039
1.470294 3.378151 6.122571
2.758942 4.684051 3.125033
1.818669 2.390382 4.708670
4.678022 4.311426 6.121605
2.757380 5.064115 6.694889
2.876869 3.259830 3.132120
2.729552 4.088663 6.988767
1.847434 4.023372 3.348745
1.830263 4.858947 6.365102
4.280496 4.862763 6.281109
3.056480 2.994998 3.288725
2.181281 3.825974 6.813521
2.550411 3.119646 6.739440
2.762996 4.759779 6.851926
4.984165 4.062188 5.309086
4.818988 3.803974 5.781546
1.627539 3.628171 6.422649
2.198271 3.859119 3.195725
4.689016 5.077714 5.167956
3.663787 4.561693 6.802619
2.289115 5.017361 6.553012
3.951334 2.246676 4.547846
2.113960 4.137187 3.226577
1.659376 5.403203 5.452994
3.579838 5.781554 5.700462
4.622816 2.923579 5.283211
3.294710 2.731755 6.521949
2.180498 5.824103 5.191482
4.491340 3.067992 4.011439
2.006642 4.148859 6.720039
4.101750 2.358637 5.183708
1.187350 4.440094 5.685681
2.333186 5.384358 6.223610
1.331976 4.958477 4.499916
4.464940 3.798145 3.673342
1.862794 2.660655 5.981985
2.511853 4.381091 6.942187
1.686074 2.525607 4.688859
3.009141 5.523879 6.285686
3.779254 5.833349 4.745579
3.438589 3.576703 3.077894
4.829669 4.770847 5.001354
3.013404 2.316133 3.947691
4.021777 2.415926 4.322308
2.816249 2.837320 3.350490
1.152678 3.848214 5.721829
1.012275 3.977775 5.298914
1.911424 5.576474 4.542976
2.888594 3.822982 3.010010
4.409214 2.666789 4.630659
3.595337 5.525595 3.845380
2.438879 5.789508 5.639312
4.050490 2.411935 4.455916
2.823927 3.071437 3.224974
2.283811 5.855710 5.084719
4.730212 4.211153 4.028867
4.594901 4.282359 6.160377
1.828791 5.130066 6.142107
3.672577 2.123351 4.903206
4.377055 4.510205 6.392782
4.230940 3.233135 3.634392
2.916881 3.252634 6.843577
1.929277 5.029535 6.380428
3.031033 4.169624 3.016565
2.333371 3.507618 6.835563
2.888676 2.065440 5.385577
3.993301 3.997492 6.757966
4.115344 2.511946 4.251923
3.277767 2.059204 5.414323
1.471995 4.894422 5.797555
4.226835 2.437769 5.399375
2.142325 2.306670 4.487826
3.853780 4.052470 6.794431
3.820861 4.717909 3.338563
2.504756 2.144621 4.660837
1.934960 3.458385 6.607112
3.459928 5.026640 3.363350
3.051824 5.059368 6.678149
1.344551 3.641677 6.052851
2.789094 3.003209 3.283448
2.042812 2.229656 5.046309
4.136366 2.406270 5.333025
3.972238 3.980906 3.201151
4.873638 3.711336 4.268906
1.527322 4.189233 6.347238
4.707234 4.054939 6.079302
4.804251 3.476864 5.738273
1.994767 4.272567 3.304288
1.840259 4.135022 6.638921
4.984194 3.678023 5.218162
4.136031 2.411641 5.467792
1.277237 3.664064 4.064236
3.771394 4.994199 6.552431
3.389188 4.165430 6.982341
1.673295 5.435488 4.762411
4.203017 3.313855 3.532062
3.776616 5.638545 5.713895
2.743936 5.862728 5.660798
4.612681 3.431837 3.925156
2.592964 5.426899 3.664072
1.227638 4.861734 5.511394
2.189104 2.867172 6.460913
3.380337 2.556749 3.653495
2.287462 5.450914 6.164224
4.174268 2.452371 5.250152
4.457133 5.341512 5.358426
4.788342 4.424815 5.767545
3.059776 2.660270 3.491210
3.209530 3.765370 3.052250
1.467850 3.483811 6.124306
2.970427 3.854083 2.983877
3.016533 5.990740 5.215314
1.529560 2.771529 5.578463
2.297828 3.776031 3.116427
4.639084 3.048937 4.398808
1.670104 5.463305 4.624773
3.589264 2.889353 6.600317
4.064746 2.412393 4.361107
3.687616 2.165390 4.817164
4.196775 3.470577 6.479410
2.448972 2.231505 5.776768
3.532776 5.435181 3.742067
3.560939 2.527446 6.294780
3.732037 2.558322 6.131309
1.359583 4.910843 5.591407
4.355890 5.409977 4.562715
4.169267 4.394436 3.417780
2.446796 5.880697 5.272629
4.728546 3.608586 4.097790
3.074490 3.640104 3.003606
1.445827 5.091636 4.431241
3.115325 5.208753 6.598509
4.345548 2.702485 5.693508
3.804514 5.050145 3.480271
3.316164 5.995979 4.877708
3.700083 5.162282 3.487212
4.873502 4.495844 5.562881
1.261400 4.856965 5.514902
4.661426 3.672128 3.979769
2.018195 3.296016 3.402429
4.344433 5.437446 4.772004
2.596757 2.200554 5.737178
4.850666 3.293919 4.857427
3.479653 5.915199 5.188795
3.271552 4.253184 3.020347
1.531882 3.159222 6.030309
2.204454 2.696171 3.702925
2.831363 6.005509 4.849372
2.195164 4.010012 6.800025
2.241474 2.307843 4.270121
3.198001 5.119729 6.663620
1.573079 2.697144 4.566839
3.882714 2.387785 4.224416
2.037585 5.544147 5.864941
4.081911 5.639305 4.633070
2.057190 3.048059 3.537833
2.071134 3.237570 6.583323
3.059355 2.066859 4.533186
1.790745 5.248333 4.052405
1.512460 5.069437 5.775969
1.346093 4.854341 4.271909
1.937026 4.506967 6.622845
4.476288 3.882535 3.631439
3.444487 3.865401 6.962340
4.026363 2.488435 4.222489
3.072696 5.371018 6.469821
2.445620 2.727705 3.562382
3.183102 5.933345 5.436607
1.305725 3.208052 4.335428
1.310364 3.241240 5.718989
3.990852 5.545446 5.744114
1.249526 3.055772 4.862635
3.339681 5.956154 5.095427
3.288451 5.353663 3.551164
3.168059 5.990455 4.855812
2.945814 3.927224 7.001870
2.101195 5.488071 4.003782
2.101143 5.035070 6.455545
1.433422 2.793141 5.298296
4.748464 4.903377 4.824168
1.030563 4.075245 5.301565
2.175947 2.221354 5.356244
2.255878 5.458024 6.189926
4.395899 4.185701 3.600572
2.947385 5.745342 5.916587
3.337067 5.713643 5.959337
3.680103 5.682124 5.872512
4.873973 4.359432 4.441396
2.418597 3.215222 3.220347
1.713167 2.661788 4.292880
4.971968 3.798949 5.298317
3.366047 5.886784 4.336977
2.618891 3.828128 6.971070
4.434746 4.488602 6.344058
3.299927 3.753674 6.960994
3.727369 2.923096 6.503906
2.574934 3.297289 6.845254
2.760261 4.997561 6.703105
2.034316 4.448284 6.675362
1.595869 4.644793 3.768764
4.366899 5.358633 4.554546
4.686295 4.876374 5.540500
3.832424 5.252613 3.725054
3.658993 5.298768 3.639359
3.669047 5.741968 4.379980
2.962575 3.135576 3.161364
4.986659 3.919572 5.121315
1.650783 3.742713 6.474120
3.020817 4.303404 6.975267
1.715009 4.664897 3.673695
1.714582 2.524298 4.725613
2.276195 3.985245 3.130788
4.565616 5.241246 4.742234
1.805394 2.568301 4.251766
1.534731 2.986969 5.890975
3.363786 5.969779 4.627608
1.893509 2.732387 4.016760
1.157603 4.782475 5.061345
2.548683 5.089906 6.634859
4.551537 4.693667 6.006375
4.753256 4.737557 4.436107
3.620560 5.063613 3.415296
2.755913 5.068255 3.318793
1.077573 3.713207 5.558689
1.438657 3.856477 6.248465
3.125418 5.705642 3.940917
1.701828 5.419575 5.597559
1.937728 3.248785 6.494921
1.665783 5.368357 4.337088
3.026435 4.278806 2.994269
1.219413 4.071698 4.107007
4.014095 2.419357 5.579392
1.452177 3.602016 3.773905
4.634782 2.852224 4.875851
1.529886 5.330151 5.337408
3.174955 5.960608 5.203936
3.720137 4.427985 6.809649
1.998791 3.555333 6.643330
3.408039 3.847544 3.041971
4.535455 3.293259 6.072966
3.164155 2.564872 6.384249
3.377576 5.917231 4.737499
3.683689 2.205976 4.477244
1.174963 3.484483 5.665286
2.119405 5.281894 3.764285
3.918651 5.413330 6.079780
2.683811 2.071169 5.534148
2.760376 2.282393 4.056099
4.537864 2.824013 5.481301
3.582455 3.047073 6.672621
4.981924 3.634780 4.732138
4.134683 5.666439 4.745885
2.752796 2.125371 4.365199
1.280756 5.020578 4.643559
2.341632 3.962498 3.061560
4.184172 5.012849 6.252661
3.782812 3.945586 6.863976
1.917680 2.616467 4.063105
4.095992 2.378222 4.676900
1.570322 4.439157 3.665841
2.034418 5.255521 6.230545
4.076590 4.782502 3.517639
2.123621 3.547320 3.229809
3.545131 4.095936 3.075104
4.747823 4.667278 5.761545
1.755713 4.004051 6.591184
3.176827 5.956749 4.801250
2.326318 4.830836 3.330250
4.074554 2.464694 5.752758
1.913804 4.817512 6.506281
3.198263 2.408643 3.826814
2.376194 2.410452 5.993707
3.128822 2.753317 6.571222
1.747775 4.434363 3.541074
1.351008 2.885629 4.626650
4.861372 4.696218 5.252199
1.338441 5.054760 5.165953
2.843501 5.375235 6.464017
4.487762 3.672147 3.680160
3.753095 2.913943 6.531262
3.036458 2.744724 3.470575
0.994809 4.249087 5.011213
1.691284 3.598056 3.577878
4.676389 3.835951 3.945490
1.140966 3.543598 4.402404
3.715115 4.323939 6.804031
2.541368 2.256607 5.927946
1.693612 2.483070 4.915874
3.760445 2.670940 3.630347
2.492564 5.910775 5.031494
1.613154 2.632371 4.658529
3.861910 5.751662 5.474356
1.592776 3.275681 6.240412
1.289267 3.348356 5.896584
4.799173 3.631932 4.164324
1.634835 4.517313 6.394550
4.967602 4.304683 4.965861
2.096930 2.175205 5.168693
4.614188 4.875899 5.792464
3.203970 4.307164 3.040417
4.278210 3.003998 3.823154
2.253624 3.192154 3.336291
3.042951 2.027529 5.335255
1.429772 3.792616 3.796890
2.275992 4.128550 3.169058
2.035987 4.664494 3.328836
4.589609 5.102489 4.537151
2.034760 4.271217 3.300297
1.073521 3.531887 4.905033
3.101987 3.126650 6.798347
1.497979 2.845457 5.492125
1.594006 2.586771 5.136628
1.347564 3.763316 3.910790
2.252706 2.128058 5.143254
1.175224 3.767147 4.238605
1.713786 3.066436 6.206386
2.382030 5.086177 3.444139
2.518097 5.710930 5.988064
1.791821 3.010963 3.765217
4.198815 2.491079 5.532653
3.210005 5.990219 5.286752
2.064614 2.314621 4.672302
2.901155 2.105674 4.385027
3.530429 3.035552 6.696645
1.356910 4.682469 5.962083
4.023598 2.331727 5.333514
2.191963 2.249688 4.447142
1.701673 5.282164 5.709568
1.351541 2.955016 4.450382
2.860733 5.617915 6.160681
3.043758 3.664667 3.014854
4.225553 3.550413 6.516156
3.175769 5.884739 5.580072
1.195763 3.226752 4.735115
1.928484 3.548184 3.353728
3.004544 4.440530 3.025582
4.882659 4.060856 4.237249
1.026500 4.073527 4.683266
4.069084 3.769864 3.343782
4.918427 4.517999 4.723495
3.201258 4.648692 3.128293
3.466767 2.752083 6.498012
