ply
format ascii 1.0
element vertex 500
property float x
property float y
property float z
end_header
15.8668 16.4391 9.7007
5.2324 0.0090 13.2564
9.4051 15.1946 7.4632
15.4028 5.4540 16.0383
14.5965 8.2801 10.7661
13.6410 3.8597 11.0723
16.1025 5.3104 16.0673
13.7138 16.8856 6.7116
1.8627 16.0057 16.0956
8.9042 1.8756 3.9432
12.6984 5.8237 19.0275
11.7714 4.0175 13.1081
7.2076 18.6547 18.1902
10.2930 12.8914 13.9582
16.1101 19.5275 0.5684
7.2275 12.0349 6.0865
11.7831 1.7937 17.6016
10.5053 2.3365 13.2548
6.2456 3.9245 9.6749
2.7621 4.1977 17.3108
13.9645 0.2505 15.5612
0.3412 6.6582 18.0888
12.4053 6.1225 7.5481
7.7833 2.5367 19.9976
1.0764 8.4578 14.9263
7.9553 19.6195 4.9062
19.5851 17.8451 13.4043
17.7903 8.9439 16.6252
15.9220 10.3337 9.4186
14.1135 8.1813 1.7186
14.9303 5.3164 9.7533
15.6806 3.4426 0.4375
2.4699 11.7883 7.2210
5.1262 9.0307 18.5519
5.0953 8.2114 17.5859
12.2435 5.3588 9.4942
9.5708 2.8437 7.5496
6.1135 16.0948 6.4678
13.1849 19.4153 18.4616
7.5209 12.0606 6.4023
7.9656 9.7600 15.8688
18.7322 5.8158 0.1238
8.9871 1.1421 0.6023
15.4715 2.2428 14.3701
7.2402 18.7688 17.0698
1.2455 3.8526 18.9478
12.2686 8.4422 15.6458
16.2703 9.8339 9.3780
2.0031 7.2394 2.8992
12.5119 12.1316 2.8855
12.5601 1.9464 2.1086
12.9114 9.2543 17.9917
12.5839 14.0274 2.5401
16.6533 1.6709 12.3624
18.2280 18.1546 17.8659
9.0397 13.8760 15.8266
2.7414 18.8680 18.1755
8.8177 15.5700 8.9416
5.5281 14.2496 1.2734
16.0040 19.5615 5.7214
18.7934 1.6736 17.1616
5.5962 19.3244 8.6139
18.4433 0.6383 1.7129
16.3274 12.7715 10.7100
0.6543 3.4659 7.4098
1.0413 19.8608 15.3040
18.9959 14.0137 6.8696
1.5519 14.6304 2.2807
10.9425 9.2810 9.8906
1.5036 1.4794 10.4053
0.6095 10.5085 3.0060
5.6341 3.0200 11.3687
7.7662 4.4616 4.4319
11.2811 18.2116 8.3826
3.2637 6.3300 4.8067
11.4473 15.7284 11.3783
3.7629 6.5053 7.6216
8.8189 7.9502 19.9504
11.0212 13.2415 14.3274
12.9029 16.1052 7.4445
13.3312 19.4517 3.2826
12.5093 7.6940 1.2213
0.7974 15.1793 2.2918
14.2209 2.0029 7.3523
0.6436 10.8551 15.7282
4.5116 11.3061 18.4456
5.8700 9.4210 14.4830
17.2845 3.3722 13.2272
2.4012 2.2445 19.6650
1.0003 18.3960 15.0023
13.5187 14.5888 13.0193
5.7405 8.8674 4.0428
17.1854 15.5762 15.7509
4.2792 11.8442 5.0989
15.8107 14.8955 19.9023
14.1639 13.6778 15.5403
1.8736 11.9073 0.6548
7.3428 2.3424 18.9694
0.5603 18.4263 18.9577
8.7126 16.6493 1.0350
2.7880 0.1966 1.3618
0.0516 16.5666 1.7504
11.8147 5.4646 2.6476
8.3843 3.6369 19.5437
7.6781 11.8764 11.2709
12.5374 9.6087 5.4030
2.7355 17.7610 3.8506
8.9684 16.1674 11.5212
18.9615 16.1906 10.2714
2.3982 11.8539 9.4739
17.2351 10.6159 13.8852
16.2323 9.4089 16.8379
17.9870 3.0870 18.3830
17.3949 17.0999 6.7553
5.0365 2.6566 7.4198
17.1006 7.2577 0.1071
6.0985 1.6506 12.4500
15.3647 18.5325 1.7844
7.6081 2.5172 18.2083
16.7393 10.3961 19.0808
10.4056 15.5285 9.7611
7.2852 19.8883 16.8340
11.8336 17.3445 12.9889
15.9556 1.3345 2.6300
2.1882 12.0623 14.3932
3.1024 10.1027 2.2719
13.7514 15.5806 1.7334
19.6002 13.2979 2.4976
7.0208 3.1650 14.5593
18.3348 3.5027 3.6806
12.5776 17.1900 14.7791
9.1553 2.2102 12.2825
9.1112 16.0755 11.4381
14.6797 19.4220 12.5198
18.2335 5.4792 0.0307
17.6481 0.5975 19.8727
9.1149 1.2257 5.4932
14.4262 7.6814 12.4767
2.0386 16.7129 7.4631
16.6555 2.9461 13.3460
9.3803 8.0884 0.3867
10.6342 16.7609 2.0775
8.9153 0.2491 19.8823
19.3902 13.5683 9.6022
1.4076 2.4214 14.1001
15.8900 19.7816 17.2345
8.7583 5.1059 10.8368
6.9181 10.8960 17.6813
9.0590 19.6242 14.3671
0.9148 14.9374 13.2308
12.4408 0.0658 17.5779
9.9060 10.7357 3.4054
0.7087 0.2786 4.1971
6.0831 3.0803 1.1643
14.5481 14.0497 17.6410
4.3528 14.5681 11.8896
1.8021 17.5000 7.1458
3.6987 3.6655 18.4869
4.4154 7.6863 10.9398
7.1830 13.1195 1.7532
8.5987 11.6909 12.3793
12.1792 5.3850 12.7632
19.4441 9.6490 12.8799
16.7393 5.0468 5.3127
19.4046 6.0141 8.5218
7.4187 19.8632 10.9015
17.9228 3.2490 5.5526
12.9948 6.3653 13.2652
10.1544 1.5627 2.2359
8.7721 10.6723 3.5314
5.2634 0.0240 5.3186
6.1846 7.7670 11.8642
17.0541 14.3465 14.8152
5.6586 9.9114 14.5365
17.8760 4.8086 0.3011
1.0176 10.3073 17.4448
3.0673 15.6757 12.8219
17.2766 18.0210 2.1465
15.8742 2.7062 2.3743
7.9728 9.7757 1.3949
5.5133 3.5098 2.6985
1.9765 0.4753 4.3510
6.5456 8.3972 13.8889
12.2397 9.7561 6.4578
12.2929 3.8578 3.5468
2.2596 13.3851 2.7856
4.4569 7.0314 11.2792
12.9508 11.8466 11.9222
3.8527 18.2530 14.7420
8.1376 7.9311 11.5404
2.3897 12.8835 18.0581
7.2789 9.9798 5.0621
18.1916 7.5336 7.2127
14.2540 7.4494 18.0996
8.2249 11.7805 6.0983
11.7881 9.4442 2.0810
17.7791 3.2083 11.5154
13.5432 9.3733 6.5529
9.0731 19.9909 0.2379
17.7010 12.1449 9.6214
12.7564 12.7947 16.6060
19.5308 10.3026 7.0259
7.2489 18.2123 9.6007
1.4122 11.7331 2.2985
6.9351 13.0159 12.2505
10.7297 16.5908 12.1686
19.4045 16.2298 5.2841
15.6303 7.2196 18.9041
12.3838 8.3625 3.5002
16.9581 7.0536 0.3139
16.0635 0.1305 0.8940
0.6078 12.8921 11.2420
9.6698 18.6999 9.4093
4.1143 19.9295 2.2045
0.9928 4.4556 19.5307
8.3530 7.1374 7.3926
7.4078 15.1135 12.7591
5.5876 3.8079 16.3225
11.2305 10.0343 4.0160
19.5302 10.5703 18.3651
13.4779 12.7768 0.4878
18.2825 17.0917 1.5285
1.6328 13.5040 13.3541
3.8609 19.8191 1.9769
11.3781 9.6390 6.6039
13.3779 8.8179 15.3437
15.4143 0.1868 6.5243
10.8481 5.9277 12.0036
0.5827 2.1021 10.2387
4.3002 4.1539 8.2602
11.8861 13.0830 11.9712
9.9640 8.6679 17.3860
17.2695 17.9684 18.8624
13.4349 3.9880 14.0346
5.6560 6.0135 8.0132
0.6546 8.7674 3.9266
4.6567 8.6240 15.1117
13.0434 6.2983 14.4605
8.1233 7.1636 8.1723
5.7207 3.0713 19.3616
11.9198 13.1197 12.1969
10.0267 12.5883 0.1499
1.3076 10.6924 9.2929
0.2439 4.2220 6.1022
19.3537 16.7334 0.8003
7.7740 7.0018 2.7448
5.8009 19.7909 18.3448
5.4033 15.6140 2.5990
12.6420 1.7260 12.8342
11.9628 19.8781 11.5683
18.2350 4.8477 12.4913
4.1735 1.3812 19.6542
0.5416 7.0641 6.3273
4.0300 17.1291 15.0811
7.6536 11.2693 16.5958
1.1809 13.1085 17.0514
12.1128 10.4771 4.9669
3.3698 3.5326 7.1491
5.7122 15.5957 3.2016
2.5233 15.9609 9.0521
2.2891 16.3123 0.7949
7.4609 8.1086 10.3620
4.7715 18.5448 11.6177
6.5407 12.7667 7.6186
11.2081 11.9372 4.9369
17.4198 1.8677 18.6677
8.4776 10.1699 2.1405
10.2321 6.6428 12.2477
13.7261 2.0102 1.4541
17.9174 4.1086 13.5604
14.6083 15.6350 0.1106
12.7668 16.8414 0.6979
0.1444 17.6886 13.8813
14.1215 15.3748 12.2185
4.0175 3.1914 0.2992
13.1873 13.2848 19.8318
4.9041 2.9062 7.5699
18.8146 4.7382 17.6131
12.7487 15.3623 2.3083
16.0886 8.0032 14.8337
0.9623 5.9171 11.3209
5.4502 10.7695 2.1276
5.1386 12.6823 6.5745
19.5536 7.3158 6.1005
8.0249 12.7570 6.3072
19.5789 4.0006 11.7194
17.4349 5.3865 4.6618
10.2250 16.9840 16.9815
17.1300 14.2564 1.5592
18.3888 3.1445 0.2957
10.1140 0.3516 0.8675
3.8580 19.6578 5.5010
17.0354 18.8440 4.4477
2.0933 4.3254 12.7800
13.8100 6.4798 15.5986
1.4249 0.4870 7.2602
13.1822 16.9227 18.9420
18.1534 19.3994 12.2399
8.6859 1.0435 11.3789
18.3168 15.7490 9.3843
12.8297 15.4123 19.8846
14.3645 11.8074 19.1820
19.3789 0.0077 19.2862
5.8518 0.0247 5.9474
2.5737 0.0625 16.0729
7.4562 2.2670 14.4536
4.0184 6.9285 8.1398
6.4489 14.6823 3.8398
16.2418 9.1668 8.5921
6.6050 18.3651 4.8344
8.3092 5.2272 2.4471
0.4328 13.6247 16.2763
6.3463 8.8000 16.3308
1.0809 5.4816 14.7123
4.9528 4.9840 10.5948
5.4591 3.1371 1.0498
19.6736 16.2159 4.8275
2.3309 10.4064 10.7556
18.7165 7.6801 2.6222
16.9338 2.9615 4.8898
4.3931 17.4061 19.2904
7.6206 12.6215 14.0799
9.0699 16.1717 6.3028
14.6891 3.2963 2.8396
3.1149 3.5609 19.2579
4.9168 13.0839 0.2665
17.3808 14.9110 13.3391
19.7641 0.6477 15.2291
2.4036 18.8581 0.1719
6.2720 11.0124 9.4361
15.9792 1.3547 17.7765
0.3422 19.0737 15.7263
0.3396 1.1083 2.3706
1.8282 3.3312 4.3141
10.4626 9.8692 4.9921
19.7134 11.8770 10.2233
16.6099 12.3424 17.4721
16.5972 7.1697 17.5081
12.4397 0.4326 6.6452
13.7083 13.9674 14.0217
15.4543 14.5292 18.1369
5.1329 18.1272 17.7840
16.2190 4.5808 12.0464
17.1935 16.9681 4.2763
0.8202 10.9770 1.6346
10.4516 2.3922 2.4899
17.5553 12.4175 1.2510
10.7203 5.8485 9.0178
15.0949 17.9025 0.5183
0.2197 18.3636 2.7708
16.6136 12.6789 11.6445
12.6669 8.1262 16.8646
19.1856 5.6030 4.8183
8.5108 7.4339 11.0362
18.7828 6.4730 18.6349
5.5051 7.4261 14.9923
13.5676 18.0857 12.3099
5.9311 16.1251 5.0207
0.4160 6.6069 19.3566
0.2709 17.1781 13.9735
13.2675 12.2521 4.0150
9.5960 19.9582 16.6938
8.4737 8.9260 8.4772
7.2817 7.4173 4.1767
18.4179 0.5346 2.9636
12.1812 16.9646 13.6987
2.8123 9.8609 19.6940
17.3853 4.6348 19.6283
19.9267 3.0631 17.0809
3.9534 0.8882 8.1217
19.5660 14.4473 3.6365
16.9928 6.0646 15.7539
10.8592 13.1173 9.9496
12.8132 12.0219 18.4662
9.9128 16.9312 10.2686
1.7780 12.2585 17.4931
8.5246 8.4898 12.5132
5.1596 4.4676 10.0167
2.1115 9.2654 8.8865
9.4206 9.0310 11.1625
15.5537 17.5838 8.6503
13.5449 5.6885 4.0612
9.6148 5.6929 6.1913
13.1543 11.0137 3.4059
11.7537 19.8681 4.9679
14.4172 6.6778 14.2618
18.4611 19.6074 16.9651
5.6308 16.9576 2.3831
16.2952 13.3729 19.4693
7.7753 17.8314 9.6225
1.6923 18.5541 3.1702
12.8737 13.7340 13.4064
13.0660 18.9483 13.6497
1.0724 11.3091 18.9342
16.0702 8.8353 10.7513
15.0437 15.7573 0.8925
5.6162 7.8505 0.2827
12.9866 12.2669 5.5230
11.8742 19.4739 9.2666
3.8528 9.1112 13.5231
3.4216 13.0595 12.4101
0.1752 9.9910 0.5036
11.2816 4.6540 2.3521
8.3961 12.9402 0.8674
15.6487 7.8411 11.2571
11.0871 9.7997 2.0987
1.1672 5.6191 19.9168
12.4272 1.7235 11.9095
10.3173 4.6347 13.7558
18.3739 19.5341 10.7777
17.5963 18.1181 6.0038
9.9811 3.8554 15.5253
18.1876 14.2471 6.8541
15.4481 7.8868 3.6543
8.6117 4.9871 19.0168
0.3734 16.7095 8.4881
0.4057 16.7990 7.3850
2.6658 13.1689 9.5170
8.9805 6.7325 3.3939
17.7323 2.1203 1.4733
9.3671 13.8366 7.1415
18.8563 17.2461 11.3167
17.6265 18.8768 3.7987
5.0614 18.8493 6.7653
18.9164 15.2040 13.0680
13.2883 14.0519 16.8813
12.4880 2.3184 1.2129
2.6736 15.1983 3.0906
0.2278 6.0487 5.3187
16.4322 15.4462 0.0338
7.5603 12.2641 6.0707
19.1142 16.5869 1.4133
6.0312 18.6484 19.6383
2.8737 4.2983 14.5615
8.2470 4.1650 13.5558
13.4768 0.4934 9.0565
10.9273 6.1130 5.1435
17.9176 1.3658 1.2616
8.9993 1.1829 3.1549
7.7513 10.2301 17.8624
4.5377 4.1768 11.3096
8.6494 1.9774 1.7464
13.4742 13.5981 4.2055
3.5984 2.2174 7.5699
17.7098 14.5158 16.5087
15.0125 8.9863 0.2530
2.2756 0.9933 18.6918
8.2680 16.2608 6.2504
2.8959 12.3908 3.3354
17.3798 10.1674 7.4638
6.8210 13.5914 6.4071
5.8967 17.0816 12.0321
1.9262 15.6902 8.7584
4.5747 4.8213 15.6446
4.0281 12.8532 3.4472
7.7994 11.7422 4.2891
0.5717 8.4784 12.5909
1.1820 8.9347 6.4061
14.0106 1.3915 2.2143
0.7887 16.0379 12.9160
15.3607 12.9431 19.3669
5.9394 0.0587 13.0776
3.8790 3.4131 1.8185
13.5417 16.9562 3.2733
6.7086 18.5068 14.8244
19.9591 4.9451 12.9989
0.0707 8.1044 9.1371
4.6981 6.9354 0.5728
17.2635 2.4279 8.7739
4.0025 10.1251 7.1809
16.7416 13.7529 17.8757
11.4112 0.5512 16.2196
4.8480 16.1868 13.5942
4.7214 19.1513 13.9269
9.7979 5.3217 3.9222
1.4024 0.5203 5.1393
4.4900 17.9694 6.2497
19.4618 9.8619 3.1223
1.2716 19.9292 2.7599
11.3791 13.1712 6.7439
3.1694 10.8163 9.5688
9.1298 3.2397 2.8974
8.3046 4.8573 14.2268
11.1946 7.9659 10.2198
14.1104 16.6120 18.9082
10.1203 8.8916 6.5248
10.2291 5.9657 19.7794
12.5618 9.8810 14.4053
15.2051 5.8217 13.9739
15.1562 6.7741 11.3231
13.5751 0.9467 14.5849
7.3783 7.1004 15.6503
4.1191 0.0778 10.5899
4.9068 18.4945 5.4390
16.5273 7.7434 16.4717
15.7733 15.8821 14.6651
18.3560 18.2536 12.6776
18.0736 4.5432 1.8877
16.3863 10.8018 12.7004
0.2237 3.7955 15.5218
