ply
format ascii 1.0
comment planar noisy cloud
element vertex 1000
property float x
property float y
property float z
end_header
2.775750 -0.782012 0.521797
-2.284834 -0.735352 0.533369
-3.532062 4.186842 0.490385
-2.082054 0.764047 0.527231
0.075383 2.063792 0.485374
-1.578587 -0.829648 0.533550
0.683628 -2.763072 0.545630
-4.465343 2.235593 0.544931
0.097504 1.078238 0.505892
-1.320151 0.013429 0.448002
0.346668 1.240209 0.469404
-0.774666 -2.917144 0.529758
-2.157741 2.939387 0.622441
4.041079 4.481628 0.482964
-3.152350 3.911031 0.522792
1.813656 -1.785643 0.472197
4.246447 -0.939942 0.451302
0.386700 3.084023 0.466184
3.764085 0.951171 0.395876
-3.751485 0.479144 0.567672
-0.062112 4.266420 0.388493
-0.429747 0.360250 0.486809
-4.918812 0.149387 0.441094
-0.567427 -4.579814 0.455781
-1.309702 -4.305830 0.568826
1.697987 -4.925797 0.510053
4.383298 4.132442 0.451730
-4.142089 -0.916133 0.470524
-1.725236 -0.314386 0.461726
-0.559353 3.453869 0.497823
-0.448146 1.092463 0.508645
2.748097 1.095016 0.594779
-0.566043 -2.034656 0.404185
-4.728387 3.339084 0.498259
2.101041 -3.341700 0.484222
3.848297 -4.468504 0.547327
0.139047 -3.083966 0.517741
0.811085 -2.322628 0.529518
-3.370636 -2.176889 0.517254
-2.793541 1.705136 0.453400
-2.648298 -2.821754 0.560563
-0.692580 1.766583 0.539925
4.281452 -4.088678 0.545776
0.217848 -3.527975 0.563203
-3.079024 0.088214 0.520884
-2.339123 4.218958 0.574050
-1.159850 3.595676 0.518882
1.232590 4.687534 0.489047
-0.599668 1.504791 0.499670
-1.075552 1.758149 0.498808
0.647286 1.250230 0.474030
-2.581650 1.228189 0.581594
-4.210967 -3.528797 0.514815
-4.755857 0.437390 0.504737
-2.487408 -1.139321 0.519414
-4.084080 -0.574628 0.648993
-1.636594 0.236006 0.443414
2.729335 -3.716038 0.457748
2.162943 -1.405123 0.430971
1.109276 -4.365504 0.488370
3.525002 4.796681 0.512276
-2.179324 -3.814720 0.476734
3.850538 -2.414753 0.473014
-1.007608 3.912929 0.507120
-0.991067 -0.172900 0.474895
-0.946484 -3.643628 0.515509
-4.019056 -1.157695 0.555712
4.754905 -3.841320 0.533852
-3.614932 -2.997840 0.544051
-1.591143 -4.479702 0.554296
-1.806997 -0.617725 0.514141
-4.253206 3.066361 0.492068
-3.477399 0.859692 0.461387
-4.551417 1.063453 0.480441
-2.075955 -2.994160 0.473816
3.666569 -1.561062 0.536584
-1.605578 3.452421 0.517339
-3.763082 -4.121438 0.534838
1.456939 3.579307 0.441983
4.966009 -0.163100 0.571587
-2.676762 3.371474 0.478651
-2.204290 -1.819936 0.444999
4.718471 -1.611570 0.478039
-3.212237 2.516049 0.624188
0.112141 2.849962 0.480614
-2.603479 -2.703553 0.483745
4.323519 4.728713 0.490395
4.815210 -4.155099 0.492569
3.146978 -4.314970 0.460926
-1.852162 0.955042 0.507161
-0.965125 2.227408 0.553780
-2.576943 4.608861 0.515714
3.907580 -0.950542 0.444442
4.145583 -4.747086 0.482783
-0.811293 1.028963 0.472424
1.565331 -2.103040 0.502647
-3.344468 -0.670529 0.566523
-0.650641 -0.115305 0.492556
1.314991 -4.354874 0.495592
-1.145969 -0.140182 0.588882
-1.424005 -0.736803 0.543810
-4.990010 2.125443 0.528704
3.042935 1.456659 0.597907
3.893376 -3.147843 0.524491
4.694635 -2.938611 0.400674
2.192714 -2.489938 0.541633
0.487923 -3.210496 0.420400
-2.307155 1.572132 0.522600
4.992995 4.944302 0.414313
0.897529 1.521083 0.476657
1.811541 1.066815 0.481811
1.824062 -0.900721 0.461494
3.452518 -1.874197 0.482557
-4.903275 4.110738 0.551628
-2.797531 4.690019 0.464302
1.655340 -0.032238 0.527257
3.951457 -2.097995 0.451718
1.853388 2.701222 0.490525
-0.865087 -3.675432 0.516192
-1.384445 2.655882 0.450174
2.379480 3.189484 0.434414
2.412377 -3.750961 0.524594
1.070580 4.768615 0.556154
-2.085330 4.855123 0.496047
4.251548 4.367195 0.477134
0.518799 -0.039652 0.507784
2.904924 -2.539259 0.502774
-2.856917 0.820093 0.512145
-1.559592 -0.800662 0.373588
3.745795 -2.940514 0.446545
-4.498930 -0.763236 0.457738
0.123153 1.638898 0.507543
-0.182945 -4.290867 0.509294
2.512302 -1.665820 0.531809
-2.181062 -4.822051 0.512879
-2.809332 2.494955 0.434963
4.261328 1.406913 0.572350
0.717097 -4.373279 0.563596
-3.953104 4.647376 0.437090
-3.069638 -4.773784 0.516635
4.988261 0.899606 0.470229
-3.043910 2.763675 0.506943
1.104755 2.878963 0.552666
-0.798719 -4.657149 0.606505
3.855991 4.064151 0.537564
2.551686 4.184517 0.514747
0.969514 0.613904 0.483009
-4.892610 -0.179168 0.509107
3.797952 -4.551325 0.567989
-0.553325 0.619541 0.497765
4.315777 -0.906209 0.455694
-0.044610 2.728064 0.419016
1.942245 -0.961164 0.525652
-4.307074 1.835808 0.512364
2.451517 -3.985919 0.467705
-1.620040 -3.670477 0.551301
-1.486410 -3.602898 0.478911
-3.813442 -4.544745 0.493268
-3.531429 0.413289 0.499167
-3.142409 2.939677 0.482452
-1.717938 1.104112 0.511793
3.919699 0.749549 0.557576
-1.317398 1.806239 0.442876
2.243627 -1.603547 0.524426
-4.172525 -1.380459 0.508608
0.910988 -1.857299 0.507688
-0.181088 2.121089 0.543592
4.779579 -3.383597 0.502465
3.462078 -4.869747 0.524011
-0.451702 0.961964 0.535793
2.751428 4.423814 0.474782
-3.069613 1.094079 0.514959
0.623363 2.829217 0.487461
-4.253809 1.727907 0.493366
-1.519110 -0.025633 0.483897
-2.741378 2.183924 0.523554
2.189098 3.241041 0.504082
-0.099093 -2.752684 0.519727
2.510705 -1.638695 0.499124
0.152954 -2.762743 0.419794
-4.135156 -0.478270 0.501568
2.353676 3.850646 0.503177
3.332293 -1.547929 0.512130
4.035312 -1.255331 0.470314
0.719919 3.603672 0.440227
2.535854 0.153743 0.531230
2.520443 0.354490 0.486320
-3.442502 3.608012 0.508562
-3.357793 -0.094733 0.485927
-4.291145 1.815575 0.499697
-1.800864 -4.143553 0.477536
-0.264914 -3.213683 0.451596
4.978979 -0.956238 0.523687
-0.690067 -0.051609 0.469844
2.262426 4.657337 0.508198
1.933970 4.706516 0.520523
-2.955180 3.511971 0.470659
-4.414928 -1.844012 0.439806
0.460068 4.640283 0.621304
2.003056 1.893409 0.473611
4.982518 -1.070599 0.531171
-1.413889 2.016749 0.596973
3.963646 -4.834773 0.539495
-1.180675 -3.538453 0.484978
1.894117 3.296857 0.496644
0.982529 1.455736 0.458370
-4.470212 -1.358053 0.544085
-4.216116 0.006666 0.528314
-4.792359 4.051421 0.474279
-1.291659 1.315781 0.447891
2.458010 -1.018507 0.433938
-3.272446 -3.796733 0.549326
1.058530 -2.062532 0.506019
-2.111722 4.783402 0.510749
2.969926 -0.626369 0.458853
2.983961 -0.281605 0.426825
2.754145 -0.014020 0.548131
0.248335 3.841040 0.502102
-2.154333 1.039283 0.545362
3.094440 1.936770 0.480703
-3.138994 -1.105865 0.488159
-2.102404 -4.709124 0.535665
-3.160523 4.309729 0.536617
1.742102 4.491277 0.539878
1.862360 4.491531 0.485240
1.525100 4.436871 0.530727
-0.843985 3.152419 0.555455
-3.998290 1.845961 0.494761
4.111696 3.445099 0.474326
0.077310 1.005462 0.567137
-0.930278 -3.656304 0.467278
0.888249 -1.087818 0.531474
-3.072096 4.712949 0.497079
-3.674512 -1.488622 0.407922
-0.944748 3.678279 0.556430
-2.727793 -4.067885 0.362107
-2.557097 -1.658162 0.400794
3.925115 -1.490467 0.526367
0.307592 -4.483975 0.526354
-0.165309 -3.809057 0.468121
1.894796 -3.068348 0.507391
4.515481 3.378156 0.373428
-3.878014 -4.365980 0.535349
3.335346 -2.012991 0.512486
0.840192 -4.898250 0.497718
-3.538346 1.956277 0.501042
-2.028507 1.203031 0.524663
-0.176386 1.449823 0.498555
1.911771 -1.256172 0.406297
-2.573930 -2.917322 0.609817
0.348788 2.203202 0.560040
1.846716 3.111179 0.435753
-0.512592 -3.613985 0.482743
3.630260 -0.131706 0.488198
3.694591 -2.512843 0.553942
-0.293088 -3.318931 0.392037
4.729257 2.343253 0.475050
-4.244149 0.380969 0.411968
-4.966376 -2.838147 0.485745
-1.193317 -1.900000 0.476375
1.010971 4.666537 0.503985
1.292002 3.486796 0.469756
-0.235543 3.799467 0.462449
-3.751167 -0.399879 0.530983
-3.295025 1.238073 0.522734
3.521480 -1.232323 0.527570
3.679111 -4.222880 0.491155
1.738985 -0.989307 0.471413
1.642180 0.939808 0.494057
0.976821 -2.128557 0.525058
-2.970741 3.479506 0.391161
-0.717493 -3.488998 0.519706
1.958947 -1.328709 0.515457
0.372523 -3.750961 0.503108
-4.814197 -0.951679 0.492534
4.535568 -4.603387 0.371694
3.448161 -2.274506 0.478007
-2.394550 -0.992647 0.589472
1.164589 -0.218346 0.500645
4.232394 0.436964 0.484636
-4.039890 -2.250089 0.500845
0.030295 0.230413 0.517739
-0.437570 0.090046 0.532941
-0.897950 -1.838219 0.488556
3.355886 3.302003 0.521246
-1.193539 0.456411 0.583833
-4.363367 -1.677303 0.550313
-4.341623 4.473385 0.617015
-4.572554 3.451124 0.467161
-0.908546 4.825878 0.583809
2.184063 1.922339 0.460466
-2.962775 -1.217771 0.517678
1.464685 -2.191393 0.536624
1.870885 1.633178 0.474461
-2.447979 4.808166 0.504398
1.005577 1.267151 0.545523
1.848683 3.816149 0.464486
-0.333864 -1.708966 0.583469
-1.632834 -0.930462 0.430770
1.191516 4.062752 0.596985
4.778471 2.568667 0.550066
-0.731586 4.814103 0.495514
-1.082649 2.747642 0.479867
-0.357331 -0.514843 0.474649
-4.237816 0.310680 0.493210
0.531633 4.005155 0.497575
-1.713026 0.516467 0.562761
-3.785779 -2.446026 0.598433
-0.337433 -0.643802 0.509969
-4.966160 0.163160 0.457719
-0.982148 -4.032802 0.472714
-3.942647 2.437627 0.490845
-4.757073 -3.906461 0.448494
3.244750 -0.950823 0.441053
4.162488 3.046224 0.604856
-2.923254 -0.324296 0.515131
0.392983 3.420155 0.458343
-2.220418 -1.581187 0.540830
-0.064226 4.576363 0.441083
-0.633687 -2.905316 0.445199
-2.309489 -4.617359 0.459848
2.003936 3.724265 0.582726
-3.735090 2.522027 0.487356
-4.469272 -2.680162 0.377915
2.676754 4.847416 0.560503
1.659300 0.022801 0.484681
-0.014739 4.510654 0.407530
-0.322102 0.050288 0.484166
-0.025886 -0.281254 0.526050
-0.629759 -0.508615 0.520202
-1.071077 -1.651247 0.589921
-0.003094 0.337015 0.457362
0.285152 -0.474453 0.502336
1.919023 -4.632531 0.465022
2.112072 -2.395648 0.422890
-1.223709 -2.868772 0.544276
-0.864595 3.674356 0.523163
-1.263028 0.988700 0.514184
0.365358 2.636831 0.521340
-0.466465 4.568260 0.465726
3.895965 1.440393 0.449715
1.963613 4.826100 0.501882
3.986564 -1.882359 0.558061
2.091370 -3.137328 0.580404
4.709921 -0.966901 0.539772
1.357368 -0.292006 0.501459
4.635501 3.953615 0.513489
-3.418301 0.599404 0.500580
-4.475223 -2.078190 0.448703
0.791252 2.426343 0.501232
4.834932 0.058319 0.433259
-0.823948 -3.378681 0.493796
-2.879566 0.768198 0.581805
0.215414 4.113945 0.541143
1.487986 3.426226 0.453844
-1.848213 0.868100 0.496379
2.147694 -1.229168 0.458281
4.751145 -4.130212 0.496874
3.969631 -0.303511 0.552055
-2.084146 2.520794 0.532650
-1.732763 -1.397263 0.624207
-1.284588 -2.645532 0.559624
-1.054472 4.313797 0.510200
-3.996805 3.215557 0.533857
2.619628 1.382756 0.489878
-1.346607 -3.632167 0.443625
3.798200 -3.550912 0.565289
4.269406 -3.967804 0.550450
-4.755687 1.162967 0.487947
4.885031 -3.844372 0.513697
2.100227 3.426272 0.562047
0.203922 4.929650 0.542318
-1.104724 -1.336518 0.426845
0.185181 -0.463302 0.512181
-1.753753 2.116672 0.491618
1.226878 4.371530 0.555650
-4.070197 3.940938 0.551552
1.211226 -4.424082 0.565930
-2.246551 -3.309282 0.444105
-4.823652 2.545972 0.460794
0.527058 1.888931 0.555704
0.784478 -3.667814 0.470418
-0.734310 0.020646 0.423928
-4.277138 2.808146 0.526630
3.933430 -2.812193 0.472639
1.114308 3.712876 0.589490
-3.842867 -4.470282 0.514809
0.109306 2.821951 0.508013
-0.027457 1.158189 0.481538
-4.395981 -1.848007 0.579542
1.068597 2.209325 0.517928
3.083264 2.823658 0.479575
2.490081 4.338990 0.460296
-2.970306 -1.322253 0.496326
3.622925 1.860167 0.451118
-1.574578 1.026163 0.551444
4.465084 0.252061 0.409583
-4.282520 3.904165 0.493024
-0.137913 -4.968327 0.530507
0.971244 -2.178884 0.517106
-2.523499 0.382772 0.464136
2.713802 -3.217067 0.533013
1.268957 4.078665 0.455698
-4.818906 1.475951 0.498881
1.083686 -0.221170 0.532592
-0.085218 3.147018 0.523146
-3.039708 -0.491138 0.466248
4.957482 0.586530 0.559875
3.971622 -4.972490 0.504335
-2.074923 -1.342995 0.537150
0.410709 -3.612095 0.576455
-1.834979 1.896887 0.555876
2.754958 -0.209730 0.556006
4.303314 -1.982424 0.509634
-1.411714 -0.321677 0.539697
3.055842 -2.903701 0.510680
-0.015925 4.250866 0.439534
-1.034214 -4.460274 0.515137
4.384219 3.654170 0.512818
0.104047 0.113588 0.529186
-0.325895 1.189465 0.493600
1.724344 -1.973944 0.461927
-2.387658 4.666976 0.532825
-1.752071 -2.181490 0.434336
4.320458 0.888780 0.572941
1.785298 4.934167 0.488429
3.266371 3.810944 0.512276
-2.288882 0.363298 0.527928
0.437902 4.903745 0.529534
4.713963 2.013699 0.429551
-1.812961 -2.912996 0.541204
-3.395235 -0.944038 0.515158
0.108860 -1.655067 0.468237
-1.121789 -1.559863 0.462517
-3.404228 2.604564 0.483297
3.885514 0.842629 0.435063
4.907239 -4.619073 0.586113
0.685822 3.774485 0.574308
2.746768 -2.032039 0.522585
3.590384 4.970749 0.488830
2.009820 4.541907 0.490145
-4.558440 4.405307 0.537903
-3.423658 3.111276 0.587891
-4.290108 -2.793867 0.471480
-4.901204 0.326327 0.444121
-1.940036 -2.756974 0.577382
-1.076440 -2.403245 0.410643
-2.589703 1.109518 0.449573
-4.353954 -4.591665 0.487657
0.298631 4.694586 0.421978
-2.266807 4.186732 0.555607
2.960372 -1.192324 0.542845
-4.919474 0.154224 0.471260
3.425271 -0.338806 0.563981
4.547537 3.821998 0.572465
2.161351 1.886019 0.494341
2.336441 -2.218888 0.477467
4.335623 -0.531587 0.612980
-2.909287 -0.710340 0.536058
4.945656 4.593352 0.512816
2.734812 -3.246891 0.568177
2.265707 -4.104237 0.515097
-1.389094 3.806188 0.474719
0.457775 3.966860 0.504008
1.539178 3.717391 0.551933
1.203429 0.109769 0.400391
2.049846 1.597444 0.485598
-4.176183 0.633630 0.569153
-1.443516 -4.305522 0.474407
-0.660000 0.958349 0.577305
-2.393707 -4.863859 0.570737
-3.273727 -1.750126 0.496724
-3.610725 4.322926 0.471573
-1.336166 -1.959547 0.485632
-0.065583 4.398266 0.633231
-4.370236 -2.498660 0.593721
4.464581 -1.854378 0.506270
2.652433 1.284075 0.469592
2.308518 2.616270 0.505852
-3.271395 0.013878 0.512191
1.038008 3.821157 0.437832
0.297249 -4.597596 0.504002
4.824688 4.221948 0.566120
2.476718 -3.036922 0.410032
0.757619 3.842387 0.541329
3.508127 -0.991368 0.568740
-3.449057 3.327571 0.471972
-4.847835 1.716655 0.584709
1.902333 -3.240584 0.465483
-4.016885 4.180476 0.522054
-3.845664 -2.544826 0.484661
2.446807 -2.558599 0.484650
-2.294652 3.141789 0.469135
1.286312 -3.941267 0.534929
4.174069 -2.779641 0.542440
-1.835255 0.036776 0.496779
-2.828558 3.304770 0.432002
-3.934371 -3.525160 0.520159
-3.695376 0.476682 0.521101
-4.377773 2.112406 0.489164
-4.123576 3.605952 0.593362
-0.679954 4.355656 0.421804
-1.791350 2.846399 0.389136
2.065608 1.528284 0.463458
3.702417 -0.663799 0.535521
2.847732 -3.878898 0.447208
0.306373 2.097372 0.450951
-3.975579 4.927373 0.547551
2.097673 2.367606 0.523127
-1.371713 -4.832889 0.518853
-4.143496 -0.037400 0.539071
3.424664 1.146466 0.478740
-1.617835 1.896742 0.481051
-2.817512 2.197258 0.540489
3.714521 0.581084 0.432756
4.021339 -2.766397 0.392864
-1.610292 4.422007 0.478336
-1.451986 1.966665 0.546544
0.796285 -2.631600 0.512778
2.334415 -1.776782 0.542865
-4.368508 4.219277 0.399185
0.933437 3.874852 0.515775
4.528201 -0.948536 0.532693
-2.379061 -4.616928 0.432460
4.088272 -4.515026 0.543103
4.501683 -2.160817 0.494424
-2.308464 1.291222 0.653567
2.542019 0.841946 0.391138
-2.612250 1.338278 0.568456
2.376112 2.172830 0.480292
2.974200 -4.809677 0.419142
-2.527943 -3.949144 0.473652
2.158695 -1.405165 0.513874
3.121045 -3.451400 0.551873
-1.414211 -4.246800 0.586098
-3.322972 1.409644 0.571095
-4.080354 3.153365 0.451731
0.753817 2.526267 0.556508
4.780981 3.170398 0.519564
3.229503 1.658565 0.467270
-0.641604 2.353453 0.489404
0.366209 -2.282212 0.464508
-2.204721 4.930080 0.501855
-3.369341 -3.168343 0.463517
-0.179188 -2.855061 0.448600
-0.364984 -2.110782 0.523956
0.219300 4.753324 0.531437
4.528046 4.882886 0.490620
1.038953 2.948937 0.568383
1.057718 1.290576 0.486978
-3.719752 0.200626 0.484861
4.964889 4.706208 0.533024
2.728449 1.956228 0.493379
3.772033 4.447301 0.504240
-0.856996 -1.834492 0.373978
0.021281 -1.662252 0.500835
0.220838 3.547246 0.408640
-3.059055 -3.501451 0.438952
1.894892 4.459279 0.433234
4.029767 0.074744 0.447871
-3.362942 4.264139 0.472557
-4.136817 -1.632072 0.475675
2.382189 2.159589 0.533214
-2.267982 -0.171249 0.511119
1.238625 1.268036 0.404946
1.957583 0.043725 0.504165
-1.780892 4.671156 0.515913
3.151446 1.921054 0.483572
0.499890 -2.486810 0.496956
3.689994 4.096769 0.509516
2.632936 -2.059703 0.538230
3.685756 -1.283949 0.421256
-4.798386 -3.978763 0.487784
-2.564937 3.999665 0.575417
-4.099921 -2.138880 0.570833
-0.579170 -2.410824 0.542547
3.899601 4.202626 0.526841
-0.324597 3.055269 0.582732
3.497130 -3.589211 0.595892
-1.728218 2.693245 0.493546
-1.604299 4.130331 0.451528
3.955617 -4.214888 0.486485
-0.741829 3.252150 0.654835
2.897655 0.474201 0.421532
-2.633565 1.691974 0.476473
4.488008 -0.071457 0.429365
0.745782 1.978031 0.506238
2.593236 -4.659021 0.439865
-4.104843 2.627067 0.494562
-0.073358 -4.666563 0.402495
4.010385 -0.447002 0.530881
3.770386 -3.490350 0.561117
-4.531860 3.235743 0.480803
-1.963015 -1.863391 0.493243
-0.566800 -0.459065 0.491830
-3.277352 -0.712493 0.509046
2.299983 2.725020 0.498092
-3.154880 -0.188556 0.538406
-1.533603 2.889583 0.561652
1.632806 -4.264917 0.459296
-0.179107 -3.084060 0.484534
2.385710 0.515342 0.545081
4.612079 4.470883 0.428917
-3.834533 -4.252422 0.401464
2.095677 -4.569158 0.511316
-2.696558 -3.434493 0.524817
-0.855233 1.411531 0.463885
-4.671373 -1.010071 0.471067
-3.640926 3.255524 0.461990
-1.802227 -4.280668 0.456654
-1.580142 -3.035859 0.534675
3.995852 -1.999736 0.440975
2.418129 1.267301 0.486724
4.721830 1.851727 0.454733
0.990715 -3.757967 0.427236
-2.582863 4.438047 0.543509
-1.723450 -1.589559 0.474009
-1.801641 2.131688 0.509422
-1.735057 0.242077 0.424596
1.729642 -2.772419 0.462903
0.308079 3.462283 0.537804
-1.145758 3.182380 0.629364
-3.509102 -1.039281 0.401189
-4.778608 0.886076 0.489945
-2.811653 -2.421743 0.520614
-3.925286 1.898516 0.469195
2.854450 -1.909732 0.542476
-3.875020 3.440787 0.456663
2.242282 -2.826149 0.507692
-1.143413 -4.851966 0.473896
-4.266216 -2.314920 0.560972
3.127300 -3.089475 0.466182
0.796306 0.082864 0.482406
-2.642385 -2.962967 0.547284
3.946812 2.631899 0.448598
-4.547417 -2.586294 0.503438
-2.981804 2.069682 0.408873
2.520469 0.784709 0.445603
2.093779 4.862499 0.519107
-2.107283 4.999010 0.450465
-4.379751 3.695261 0.472771
3.580781 2.599834 0.524654
-1.863024 -1.135436 0.471041
-3.042866 2.532767 0.541142
0.160618 4.566755 0.510783
4.102272 -4.766224 0.521784
-4.564534 0.379147 0.562048
2.658041 -2.820017 0.515991
0.724732 0.578763 0.576942
-0.745509 -0.335529 0.545563
2.440804 0.757686 0.473827
4.658244 0.509622 0.564657
-2.707938 4.601070 0.513193
-3.563526 0.521861 0.480266
4.128817 3.462321 0.513919
1.689531 -1.801797 0.555616
-0.620140 -0.618993 0.522752
0.732596 -0.295865 0.591120
2.456139 -2.212720 0.554327
2.730319 -1.202097 0.526158
4.198942 0.985131 0.448697
-0.731572 0.801878 0.491013
-2.065891 1.364353 0.503583
1.396643 -1.481821 0.534832
-0.842721 -1.841685 0.531867
0.945985 1.116179 0.508477
-0.800142 -3.671383 0.506017
-3.470042 -2.469685 0.536023
-0.305732 -4.578723 0.457071
1.909178 -4.273891 0.584776
2.992838 -2.566167 0.397642
-0.066737 -4.804707 0.572770
-3.347621 -2.545894 0.497741
-0.853123 1.549763 0.550129
2.862939 -4.388929 0.518192
-0.871407 -0.632633 0.517302
1.965308 4.131088 0.527713
0.072137 2.912848 0.540453
-2.587769 -1.945625 0.483558
2.961505 4.248055 0.551740
-4.157865 -1.703535 0.445776
0.248903 -4.274845 0.499733
-2.911090 4.940560 0.541798
-4.329344 3.700225 0.549751
0.029339 -0.340672 0.523039
-0.004378 1.663765 0.480330
2.069009 1.712281 0.544835
2.447507 -3.055178 0.466532
2.277915 -2.999514 0.587570
-0.904413 -0.304193 0.495766
1.316898 4.115731 0.423019
0.769452 -4.900062 0.440266
-0.784382 2.825056 0.502182
0.972127 -4.424732 0.506991
4.472479 -0.217779 0.598483
-3.071063 1.378728 0.448075
4.057721 1.867593 0.501973
-4.465445 -4.415207 0.447029
-1.916108 -0.813964 0.475367
-2.118548 0.838373 0.584199
1.263651 -4.339545 0.443183
-3.687750 -3.649054 0.529352
3.823476 1.636490 0.519645
3.285514 0.216382 0.498791
1.520658 -3.381713 0.525972
-0.415862 0.352393 0.441999
4.329560 4.126924 0.582816
3.307466 -4.844124 0.596242
-0.006849 1.426338 0.502355
2.018734 -4.263496 0.621155
0.669300 -4.935506 0.480049
0.879422 -3.493455 0.520022
-1.690239 -0.770934 0.571594
-0.379154 3.023440 0.477050
-4.218786 -2.182145 0.430923
-1.426513 1.256732 0.419414
1.958285 -0.888434 0.603041
4.532160 -2.656682 0.473549
4.630641 0.142471 0.490713
0.557229 2.974645 0.444362
1.066223 3.324924 0.547417
-3.142788 3.465195 0.460922
1.953081 -1.614422 0.475437
-4.293412 2.934561 0.514976
-2.153143 -2.878215 0.446798
1.683633 2.384251 0.491071
-1.896899 4.483844 0.570110
-4.501531 -4.862562 0.521413
3.318704 -0.596361 0.506527
-1.896700 1.477710 0.510743
-4.368948 2.017758 0.480543
-4.252118 -3.239122 0.599808
-2.482412 4.721833 0.459392
-3.219841 1.152654 0.510546
2.743001 -3.356594 0.505751
-1.783160 -4.794775 0.550438
3.046958 2.832642 0.555159
-3.261540 -4.202953 0.498399
-0.071208 -3.589491 0.514533
1.880371 0.748300 0.516427
1.519909 1.035055 0.386393
1.011294 1.868871 0.420551
4.248216 -1.064860 0.469747
-2.714749 2.738987 0.471920
-0.062808 4.743586 0.440036
3.839926 -2.289051 0.537479
-4.221062 2.030286 0.500106
-4.441117 4.284687 0.489265
-2.666977 1.862868 0.437192
1.330212 1.811095 0.497773
-2.401204 -2.762274 0.368666
-3.097601 0.351302 0.491852
-0.411977 0.625228 0.503159
1.135981 2.001296 0.512096
-2.514423 4.968214 0.421795
-1.993088 -4.663562 0.511241
1.135593 -4.347673 0.447928
4.457384 -4.220499 0.459377
1.747417 2.429791 0.535897
2.829041 -3.636462 0.600706
-1.331899 1.224519 0.502568
-2.277456 -1.753311 0.459145
-0.457323 -0.426800 0.509434
3.071328 -2.843368 0.546951
-0.437004 3.661066 0.531050
3.467254 0.861503 0.637156
4.887720 4.445633 0.464233
-4.279733 0.745962 0.512612
-4.545898 -3.760920 0.577446
-3.504103 -3.291296 0.574308
-1.156303 4.890740 0.402496
-3.689578 2.255652 0.499832
3.706645 -4.507212 0.574226
-4.768537 2.037810 0.644532
-1.842073 -0.878270 0.535190
-3.153054 -1.927916 0.481607
4.315393 -3.459392 0.449540
1.694810 3.399040 0.610937
4.120303 -4.361586 0.536437
4.723287 -2.101645 0.457597
-0.029018 -1.936171 0.489842
-2.656809 -3.390947 0.515509
-3.062712 0.081849 0.527190
-2.770811 -4.882974 0.455019
2.085933 -1.990245 0.469290
-4.595543 4.336294 0.417353
-4.486389 -1.894704 0.551988
1.081429 -1.395406 0.482919
1.420571 -0.268350 0.523316
1.652629 0.616934 0.571113
-1.281195 3.087086 0.510994
3.059449 -3.096788 0.494351
0.336246 3.717464 0.509696
-3.945344 2.575494 0.503160
2.970993 2.226503 0.562308
4.530678 -4.131954 0.515542
-4.399637 -4.783593 0.472780
-1.086487 0.940127 0.552392
-0.124840 3.631340 0.561524
-3.535292 0.844415 0.433083
3.677089 -2.867651 0.576639
-2.158504 -4.094801 0.518236
2.830085 1.995965 0.514163
1.709945 2.217703 0.550331
0.980458 -3.274683 0.471651
-3.078572 -4.718097 0.547708
-2.792965 -0.917165 0.481161
-4.526516 0.827187 0.426252
-2.592876 2.060024 0.450112
-1.545564 3.099450 0.528351
3.331453 1.105374 0.452727
-1.336073 -3.891194 0.580504
2.546218 1.825817 0.559464
-0.605577 4.841766 0.566672
2.848683 4.055846 0.506239
4.762716 3.716689 0.512893
-2.601584 -1.978298 0.440314
3.623416 2.507882 0.549789
1.218241 3.511034 0.518992
3.172943 1.783262 0.528365
1.515859 -2.494382 0.584416
-0.760505 4.538340 0.469702
-2.719251 -0.491806 0.493693
-4.299648 -3.701944 0.516334
0.355184 -3.902221 0.453228
4.903261 1.475190 0.490620
2.380418 -0.622904 0.524647
-1.726545 -4.055161 0.483729
3.272048 2.403646 0.565449
2.689840 2.993252 0.424454
-2.183642 2.254156 0.556139
-4.856925 -2.977391 0.533059
-3.818374 1.897755 0.471559
3.773062 -4.892772 0.453780
3.365630 -1.948879 0.395986
-2.047910 -1.011785 0.460241
-2.148046 3.352469 0.552359
2.928650 -1.096056 0.497196
4.377375 -4.887306 0.558149
2.791373 -1.476536 0.469006
1.055787 -0.010759 0.535355
-2.573286 4.490048 0.464125
0.257479 4.410343 0.451721
-2.664881 -3.191260 0.494644
3.080114 -3.148535 0.466752
-1.130389 -3.366185 0.422859
3.336972 2.889219 0.490884
-1.183908 -4.939780 0.505322
3.241494 -3.728228 0.563418
-1.666822 0.379596 0.546840
-0.598673 -2.524379 0.560997
1.154884 -4.076435 0.536018
-4.297124 -1.401220 0.516631
4.482071 -2.257924 0.438553
0.736058 0.111043 0.507494
0.078200 4.792336 0.529840
3.393940 -3.756954 0.572872
3.657627 -1.272733 0.534314
0.222604 4.319850 0.562019
4.272623 3.768730 0.448400
-4.352622 -1.057290 0.483679
-3.867742 1.989533 0.521468
0.967882 -4.121430 0.558048
-1.459341 2.125411 0.492739
-0.357748 4.728577 0.495878
-1.719208 0.374882 0.534357
-0.952747 -0.015098 0.443706
3.226463 -3.126814 0.580370
0.934762 1.337882 0.456043
4.973445 0.904373 0.404071
2.868792 1.519331 0.500503
-2.263337 -4.739167 0.584923
-2.356549 0.487235 0.529323
-1.641017 0.949348 0.537555
3.432595 -2.924699 0.502069
-4.727123 -2.916671 0.492381
-2.698187 -2.237818 0.422755
4.049184 2.117216 0.387031
1.398964 1.062661 0.509814
-2.731529 3.457626 0.565627
-2.808550 -2.043414 0.517207
3.626181 4.120681 0.531180
3.937575 2.437062 0.579186
-2.438689 -1.049883 0.516438
-0.794896 -4.047379 0.493867
3.345957 -2.430163 0.459074
2.710074 4.567682 0.601111
3.139161 -1.896366 0.526327
0.183982 -1.700990 0.452820
4.115490 -3.104111 0.441442
-1.740485 3.068506 0.562653
-3.433279 -2.243558 0.448128
2.087323 -1.697418 0.592692
0.393544 -0.856519 0.362177
3.545858 -0.662717 0.571130
-4.188408 -0.886592 0.524345
3.436924 0.037437 0.505930
-2.067053 3.145129 0.491227
1.548557 3.192850 0.594536
-4.598712 2.983131 0.535353
1.095813 -3.988752 0.454840
2.172717 2.996788 0.414055
-1.312498 -3.797482 0.508865
-2.845893 -3.752762 0.499946
0.376307 4.478628 0.424007
3.331908 3.193978 0.497230
-1.764526 0.524105 0.471303
-2.475307 3.749702 0.500465
-2.210647 4.893646 0.536296
4.491322 1.106421 0.574630
-1.407231 1.128984 0.545444
-4.963958 2.544270 0.463928
2.816812 -2.678610 0.518446
1.992748 -3.328751 0.503155
-3.714317 2.595808 0.433394
4.849042 -1.550952 0.519912
1.080623 -3.649296 0.592834
0.007795 -1.851223 0.501621
-1.177807 -1.413631 0.420291
3.986728 4.652277 0.501513
-2.560365 1.979597 0.439314
-2.142311 0.308563 0.543180
-3.775892 4.688731 0.526243
2.591191 4.031397 0.491454
0.955493 0.120009 0.483442
1.090662 4.056796 0.489388
-2.815296 -0.956953 0.500414
1.511684 -2.695793 0.461388
2.654584 -2.673218 0.430612
-1.421115 1.623155 0.556935
3.013471 0.010703 0.480730
-1.512094 1.589508 0.508352
2.581385 1.860760 0.514264
-4.662699 -4.776771 0.516101
0.511646 -4.459604 0.441309
4.695266 0.326777 0.416208
4.812446 -3.089645 0.470565
-2.182474 1.325338 0.519786
-0.586009 0.521857 0.463603
-4.370221 0.857604 0.482254
3.733413 -1.975446 0.606365
0.685722 1.398435 0.407729
-1.148993 3.294926 0.462248
-3.872294 4.980713 0.594830
4.467673 3.384444 0.497770
0.302190 0.574988 0.464701
-2.170721 -3.065704 0.558438
-1.497849 1.814459 0.502762
-2.293028 4.376538 0.482585
1.018098 -2.881335 0.509618
4.299636 -2.440044 0.467095
3.566938 -3.509915 0.449125
-0.396191 2.367216 0.494320
3.264994 -0.934385 0.449450
-0.768945 -4.373044 0.500535
-2.476929 3.749500 0.517720
4.834151 0.576719 0.542653
-1.961124 -1.689057 0.556396
-1.762758 -1.560170 0.479713
4.896929 -2.097488 0.524971
-3.660725 -0.445198 0.524626
2.605340 -1.629583 0.516391
4.358128 0.479463 0.476027
0.117950 2.735173 0.448597
-4.974782 1.744613 0.525100
-1.249411 -2.055431 0.414657
-3.884310 0.287410 0.486608
-0.838123 3.401262 0.372318
2.900268 -4.317938 0.433180
-0.612885 -4.217027 0.456143
-0.680749 0.561701 0.554836
0.567895 1.391151 0.534405
0.816906 -2.885870 0.472303
3.562963 2.452201 0.536468
-1.916446 1.462634 0.544381
3.216713 4.232893 0.491967
0.659337 -3.310458 0.430781
-1.994705 2.513743 0.489604
-2.048740 -4.163569 0.495105
-1.388625 0.652924 0.438377
1.226932 0.518951 0.518352
-2.691883 -1.116150 0.513991
4.203336 3.445711 0.522252
0.749126 -4.956294 0.513946
4.200158 0.201794 0.536492
-4.535956 -2.828465 0.491034
-1.573886 2.434986 0.510089
-4.771923 -4.569326 0.480113
-2.277482 3.315547 0.470775
3.620065 3.380922 0.566912
-4.633903 3.328660 0.397812
-0.638529 -3.474315 0.543838
-3.824329 1.304065 0.468973
-0.831593 -4.856326 0.462498
3.388516 3.479626 0.513079
1.230710 2.229752 0.425520
2.367563 0.311537 0.459199
-1.508959 2.305914 0.457543
4.443977 -4.056759 0.488930
2.092621 0.286558 0.459793
