ply
format ascii 1.0
comment curved surface
element vertex 1500
property float x
property float y
property float z
end_header
3.793265 -0.253518 0.722657
3.959345 4.311581 1.713307
-2.613111 -1.051590 0.396710
-3.007581 -0.718243 0.478071
-0.037648 0.785601 0.030929
4.002770 -0.370627 0.807977
-1.776449 -3.313983 0.706913
1.520146 -4.814445 1.274486
2.081517 1.098117 0.276929
2.786747 4.208066 1.273689
0.639245 -3.936359 0.795178
-0.975448 -2.890473 0.465317
4.670160 -1.297705 1.174722
1.113308 3.087422 0.538582
2.285652 -2.307397 0.527414
-1.550172 3.820544 0.849979
1.699492 -4.450421 1.134726
-2.422023 4.409566 1.265524
-2.549031 0.607471 0.343329
2.147222 1.587777 0.356580
0.213947 -1.323105 0.089819
1.832766 2.819943 0.565555
-2.305615 -3.334337 0.821683
0.987233 -4.510882 1.066134
-0.560664 -1.044831 0.070301
0.969603 3.536957 0.672510
-2.091203 2.549268 0.543595
2.154510 0.171560 0.233567
3.059294 0.721377 0.493983
-2.400835 -3.701072 0.973097
-1.993794 3.406815 0.779080
1.611543 2.869597 0.541583
1.955852 1.564704 0.313683
2.040997 -0.338090 0.213999
1.826985 4.644593 1.245506
-1.071923 3.790320 0.775777
-1.051463 1.444305 0.159580
-2.451824 -1.281990 0.382747
-3.431663 1.180223 0.658462
1.925774 0.754409 0.213887
-4.068112 -1.057580 0.883401
4.377923 -1.933260 1.145185
3.266863 -0.929892 0.576855
3.575057 0.739114 0.666366
4.066688 -0.718652 0.852721
-0.913950 -2.364255 0.321250
3.467007 2.609633 0.941516
-3.419387 0.314675 0.589561
-4.783582 -4.323248 2.078657
2.848914 -1.316835 0.492518
-4.252034 3.849135 1.644781
4.885247 2.552365 1.519010
1.747964 -1.767532 0.308977
2.534497 4.381832 1.281206
-2.541961 -4.233971 1.219404
1.738654 4.612347 1.214833
-4.567801 -2.542949 1.366570
3.378257 -4.909058 1.775574
-3.303759 -0.661920 0.567648
1.973581 -1.410296 0.294198
-2.755195 0.390890 0.387195
-4.315468 2.967729 1.371534
-0.185063 3.424308 0.588007
-3.307138 -0.987700 0.595636
2.294440 -0.701543 0.287831
-2.624342 -3.518223 0.963253
-1.575274 -4.524524 1.147640
0.674393 1.412150 0.122449
-2.150317 -4.355624 1.179766
-1.220119 2.338301 0.347817
3.156218 0.390901 0.505726
-3.207902 -3.014170 0.968793
-4.177984 0.395229 0.880588
-1.716422 -3.170023 0.649757
-0.756232 -0.612628 0.047360
0.426593 2.995603 0.457781
-1.275763 -0.380807 0.088629
2.899117 -3.513007 1.037305
-4.606805 2.238287 1.311629
-0.682325 -3.132316 0.513848
-1.177441 2.385499 0.353849
1.475785 -0.206477 0.111029
4.662763 -0.462582 1.097767
0.103754 3.514350 0.618071
4.868768 2.086035 1.402822
-1.977506 -4.670892 1.286388
-4.691319 -2.038257 1.308148
-3.343368 3.709207 1.246816
-1.048751 -4.816738 1.215042
-1.836661 0.452534 0.178906
-4.029459 2.278257 1.071350
-0.673399 1.218561 0.096918
-1.618842 2.605322 0.470418
-3.773808 2.256918 0.966765
-2.038829 1.920307 0.392220
3.864361 3.215399 1.263604
-1.979511 1.456907 0.302052
2.139554 -0.975815 0.276495
1.120471 -0.280909 0.066718
-0.728188 2.167248 0.261361
-2.609744 3.763060 1.048569
-1.309853 -2.277812 0.345207
0.921072 -1.579232 0.167117
-1.492468 4.307394 1.039055
-2.851036 0.785118 0.437241
-3.835373 -3.210382 1.250832
3.797669 1.636951 0.855095
-0.596870 4.907622 1.222050
1.252083 3.234536 0.601497
-0.095896 2.457411 0.302403
3.725665 -2.919533 1.120213
0.469349 3.761398 0.718420
-0.192186 0.257888 0.005172
4.246010 3.892900 1.659164
2.196896 -1.701722 0.386110
-3.884501 -4.379489 1.713464
-3.222955 -0.240240 0.522258
2.871229 -2.301624 0.677071
3.358513 2.152293 0.795599
0.451908 4.571066 1.054943
0.544552 1.909742 0.197182
1.319330 3.869339 0.835621
-0.608842 -0.469760 0.029568
1.801991 2.716407 0.531302
-3.915187 3.430434 1.354829
4.612792 2.108756 1.286235
2.501548 0.077773 0.313190
1.311742 1.258661 0.165245
-1.836779 2.005070 0.369703
-3.390445 -2.469156 0.879592
-0.906570 3.095793 0.520290
1.615767 4.503245 1.144496
1.337097 -0.347607 0.095433
-1.173588 2.010672 0.271006
1.132864 2.370259 0.345075
3.137483 1.622475 0.623811
-4.737152 0.471151 1.133130
-0.493790 3.816480 0.740467
2.585552 -0.510733 0.347296
0.461445 -4.388970 0.973800
1.514761 3.445564 0.708321
0.166764 1.739813 0.152738
4.918745 3.492586 1.819611
-4.453785 -3.614526 1.645050
-0.089552 -4.692471 1.101365
-4.085835 4.343745 1.778108
-3.402144 -3.522717 1.199206
-1.169616 3.096523 0.547823
-3.444599 3.232099 1.115586
4.636872 2.087052 1.292818
4.467898 -3.687378 1.677943
-1.638904 1.673986 0.274412
1.397477 3.890866 0.854589
0.337533 -0.744684 0.033424
3.155870 -0.864831 0.535372
1.274456 -0.571417 0.097538
-4.997475 -4.177281 2.121222
2.631744 3.920256 1.114724
2.468481 3.691829 0.986150
0.097227 4.979093 1.240041
4.029190 0.851831 0.847999
4.084462 2.511916 1.149628
0.239117 -2.973281 0.444879
1.079882 1.675288 0.198637
4.965221 1.497328 1.344770
-2.011798 4.012087 1.007209
-1.753828 3.307927 0.700915
-3.172261 4.384665 1.464426
3.958669 3.688335 1.463744
2.444884 3.686939 0.978549
-3.943572 -4.362767 1.729274
4.817674 3.459620 1.758947
2.309617 1.074784 0.324475
3.505221 -1.195555 0.685796
-4.518492 -4.434854 2.004235
0.049609 1.776738 0.157963
1.985983 -1.717982 0.344780
0.429466 -0.322237 0.014414
1.666475 1.817284 0.303983
3.178741 4.117745 1.353011
-1.256629 3.254369 0.608502
3.486687 -0.494029 0.620052
-3.370839 -1.122168 0.631091
-2.291139 -2.602203 0.601039
-4.566544 -1.275732 1.124041
-1.355732 -3.889536 0.848325
-1.200905 4.711055 1.181811
3.052706 0.739174 0.493270
1.531307 -3.721942 0.809887
-0.632774 -1.471940 0.128351
1.521140 0.470391 0.126757
-4.472166 0.328856 1.005421
-3.197285 -4.644966 1.589917
1.269479 4.508410 1.096867
1.413668 -2.246243 0.352203
2.741347 -4.838153 1.546135
-0.970002 -4.235560 0.944044
2.225541 0.801949 0.279808
1.839803 -3.622145 0.825240
4.633934 -4.582752 2.123748
-2.848698 -1.203735 0.478203
0.516796 1.227612 0.088705
1.017644 -3.881602 0.805122
4.986479 -1.866722 1.417481
-2.988159 -0.822393 0.480271
0.232180 -3.405399 0.582533
-1.538147 0.060739 0.118479
0.258930 -4.147859 0.863589
-2.678714 -4.534815 1.387003
-4.523876 0.198354 1.025240
0.725655 -2.521030 0.344108
-1.641457 -4.046262 0.953331
-3.180586 -0.760874 0.534753
-1.760644 4.151407 1.016703
-4.507198 2.241924 1.267053
4.504422 3.156159 1.512558
0.811479 3.719140 0.724525
3.147687 4.726277 1.612282
-0.768818 2.632466 0.376048
4.033147 1.084079 0.872075
-0.166818 -1.345741 0.091942
0.739453 -3.183568 0.534095
-0.082060 1.866599 0.174546
2.332783 4.949500 1.496971
0.666561 -0.326413 0.027542
-2.284011 2.236794 0.510998
-3.544605 -0.049076 0.628332
1.061244 -0.680666 0.079477
-0.108200 -0.896944 0.040811
-4.040243 0.046247 0.816285
-1.043825 -1.331043 0.143062
0.147764 2.487733 0.310533
3.268932 3.742720 1.234694
-4.238989 3.828853 1.631457
-1.515047 -2.723013 0.485508
3.226561 3.959091 1.304255
1.484239 -1.584488 0.235678
-2.100417 -1.906923 0.402405
3.453351 2.267561 0.853373
-0.067064 -1.953037 0.190942
-0.016481 -4.470336 0.999209
4.765873 -1.263822 1.215540
4.471165 2.214656 1.244801
-1.414673 -1.730416 0.249782
-3.594209 1.295591 0.729845
-1.743333 1.601194 0.280152
-4.695167 2.337360 1.375392
-4.792321 3.971305 1.936880
-1.044779 -0.674355 0.077316
4.410198 -3.335679 1.528830
3.713573 -1.810743 0.853471
0.114428 -0.678327 0.023661
0.652264 2.138915 0.250020
-4.940665 -4.868779 2.405759
-2.844988 -1.842146 0.574373
-4.752259 2.798426 1.520758
2.545395 1.708577 0.469914
-3.543542 2.317400 0.896352
3.690471 3.118108 1.167109
1.433243 2.832357 0.503822
-2.705813 1.821832 0.532025
-3.422797 -0.603385 0.603981
1.276247 4.835983 1.250777
4.008370 0.690732 0.827207
2.183602 -2.972308 0.680137
-1.514533 -2.071871 0.329323
0.873836 1.935625 0.225512
-1.892383 4.247396 1.081074
4.991496 -3.212799 1.761855
2.488392 -4.176535 1.181777
1.143816 3.815310 0.793246
-0.767409 4.152780 0.891725
1.181523 -2.236207 0.319831
-1.583839 -1.227143 0.200721
-4.711352 1.601880 1.238143
-1.049115 -1.700700 0.199651
4.304808 3.771587 1.637812
1.263011 -3.924213 0.849732
-4.160443 -4.620178 1.932766
3.849936 -2.915138 1.166002
-2.311252 -2.139122 0.495886
-2.562305 -3.870734 1.077399
-2.029090 -4.343096 1.148984
0.772022 2.556077 0.356477
0.446881 -3.357234 0.573536
-0.085862 4.139222 0.857027
2.175369 -1.320003 0.323732
-1.834623 1.706058 0.313824
2.820645 -2.745979 0.774822
-3.246783 -2.596772 0.864241
2.826208 0.747092 0.427280
1.638101 0.606429 0.152557
1.832083 2.687292 0.528903
-0.184466 2.578133 0.334040
1.670015 1.706878 0.285119
-4.202030 -0.508694 0.895791
3.515511 3.906404 1.380940
-4.444528 1.225785 1.062819
-3.512585 4.901985 1.818385
0.767897 3.193698 0.539469
2.394115 -4.556902 1.324857
-4.237484 -1.794061 1.058746
4.207648 0.718757 0.911046
4.736076 2.214695 1.366765
1.059502 0.503365 0.068796
-0.187565 2.861304 0.411112
2.413950 -2.173443 0.527550
-1.716426 -3.160879 0.646864
-0.067356 -4.460833 0.995178
4.161510 0.733137 0.892783
4.556554 1.885995 1.215958
4.270691 -1.738503 1.063060
-2.375519 1.135842 0.346661
-2.675310 -4.478428 1.360680
-2.023355 -4.007067 1.007527
-0.586889 2.017548 0.220747
-1.858326 -1.319303 0.259697
-1.257872 1.713340 0.225889
1.206370 3.317211 0.622961
2.625257 3.526224 0.966312
2.355582 -3.278324 0.814809
3.144236 -0.137144 0.495251
-4.678156 2.339267 1.367866
-4.522662 2.739806 1.398050
2.893830 2.846760 0.823915
0.330788 -2.718327 0.374936
0.781407 -3.074652 0.503204
-4.474131 0.900125 1.041404
-2.446862 2.410858 0.589968
1.383543 -1.808605 0.259262
3.591819 -3.952948 1.426348
4.169834 2.167464 1.104271
0.004195 -2.003022 0.200606
0.454742 -3.336373 0.566909
3.330496 -3.522765 1.175104
0.376246 -1.850905 0.178370
0.168585 0.926781 0.044367
4.050840 -1.415978 0.920715
2.899327 -4.793381 1.569130
4.090725 -4.030916 1.649116
-2.817529 -2.094968 0.616368
0.243755 1.597045 0.130498
3.424721 -4.014849 1.392387
-3.888522 0.606569 0.774426
2.946622 -3.801141 1.156563
-3.170266 -2.883847 0.918358
3.081188 -3.278115 1.011988
1.120009 -4.327714 0.999176
-3.067640 1.713298 0.617290
-0.266458 -0.365965 0.010247
1.819052 3.310534 0.713429
1.338529 -4.011092 0.894026
-0.727528 -3.552671 0.657538
3.993665 -1.935423 0.984761
0.192634 2.658660 0.355279
0.058673 -1.942412 0.188820
-4.377494 -0.915813 1.000058
4.221204 -1.983964 1.087734
-3.228834 -4.197757 1.402327
0.283447 4.394336 0.969527
3.035676 0.485390 0.472547
-2.845467 2.878332 0.819074
0.273733 1.583571 0.129131
-2.593151 0.142543 0.337238
2.596950 -4.103217 1.179027
0.643412 1.427335 0.122563
3.559759 -3.446296 1.227442
3.945580 -0.856168 0.815031
1.487335 1.291131 0.193959
2.253912 2.822290 0.652272
0.492201 1.850452 0.183322
-1.155713 1.715335 0.213902
1.481179 -3.509578 0.725551
4.082886 -1.538715 0.951880
-0.833196 -4.570877 1.079357
-1.855900 2.194769 0.413069
-1.115631 4.525860 1.086402
-0.646024 -2.358896 0.299087
-4.264390 -4.123033 1.759221
-0.015582 -0.244299 0.002996
-0.056858 3.566982 0.636330
0.884438 0.519742 0.052618
-1.371800 -4.532228 1.121146
1.131076 4.742722 1.188637
3.782163 3.286499 1.255292
4.554710 -3.684059 1.715884
0.836122 4.217978 0.924522
-4.574090 -0.493117 1.058273
4.692360 -1.281020 1.182963
2.058621 -0.389467 0.219480
-1.640364 3.345720 0.694232
-3.528423 1.594797 0.749657
-3.565814 -4.407515 1.607061
-3.322556 4.576044 1.598978
-4.544275 -3.522159 1.652802
4.021542 2.455680 1.110158
0.407682 1.361365 0.100976
1.999594 -3.124720 0.688112
3.281085 -3.292679 1.080363
2.915410 3.703276 1.110693
3.826056 -0.803051 0.764180
4.672546 1.545765 1.211104
-0.609294 0.040710 0.018645
4.503355 2.273535 1.272458
2.232899 -0.207576 0.251446
-4.293318 -2.126201 1.147666
1.817831 -1.366166 0.258546
1.867167 3.590777 0.819000
4.058606 -0.319653 0.828723
-1.270679 -2.865507 0.491288
0.849115 4.346054 0.980459
-4.878124 2.966005 1.629664
-1.679248 -4.443339 1.128156
-4.377563 4.989430 2.202873
0.218730 1.949267 0.192374
3.174477 -3.397334 1.080959
-2.935573 -2.628323 0.776284
0.274410 1.924455 0.188941
-2.959914 2.797611 0.829386
-3.793115 -2.609641 1.059897
0.109968 -2.430311 0.295925
-4.208514 -1.928793 1.071592
0.873546 0.980184 0.086192
-4.686625 -3.281838 1.636746
-3.932850 -3.957568 1.556483
0.499975 1.788641 0.172461
0.914074 2.790979 0.431255
-4.710131 0.009294 1.109271
0.733768 -1.361673 0.119628
3.385025 -0.679573 0.596011
2.223162 -1.115922 0.309386
-3.688149 4.599849 1.738053
0.924746 2.680899 0.402119
1.722525 -2.919128 0.574420
-4.627688 -1.158108 1.137836
3.553477 0.440123 0.641045
4.062674 1.129859 0.889095
3.504523 -0.318161 0.619145
3.246315 3.101266 1.007821
2.449652 2.676060 0.658105
1.334320 0.051579 0.089154
1.786270 3.544294 0.787639
3.063953 2.510895 0.784620
1.624985 2.785818 0.520068
-1.722730 4.564008 1.189898
-1.240389 -2.335331 0.349617
3.970575 -2.323518 1.058210
-4.828779 3.889523 1.922275
1.988206 2.722264 0.568184
4.547776 4.265455 1.943819
2.062282 -4.368698 1.166927
4.939120 1.277571 1.301355
1.875449 -3.553717 0.807311
-4.656370 0.038972 1.084165
3.270099 -3.442531 1.127228
-2.153701 -3.719215 0.923549
-0.539428 -4.878317 1.204448
-1.879081 1.302388 0.261358
-2.314459 -1.409774 0.367209
-0.685943 -3.948117 0.802907
-1.212486 -1.771622 0.230438
1.333386 -3.310559 0.636886
3.131512 4.416948 1.465790
-2.029113 -1.799951 0.367856
-2.862788 -1.660465 0.547635
1.668953 3.398580 0.716787
1.703201 1.477558 0.254203
4.011312 2.101716 1.025392
-4.840543 1.360018 1.264025
3.530407 4.461963 1.618644
0.210022 -2.929992 0.431448
1.213021 4.890392 1.269368
-4.086286 3.309562 1.382546
-0.673851 0.889726 0.062284
-2.726976 1.623716 0.503643
-2.457750 1.488259 0.412772
0.040951 -4.416038 0.975153
3.124560 -2.819835 0.885717
2.437809 4.614709 1.361923
0.910000 0.343644 0.047310
0.394182 -1.216464 0.081758
-0.726940 2.620385 0.369743
4.727100 0.245189 1.120279
0.601926 -4.868372 1.203168
-2.460336 2.362376 0.581704
-2.699092 2.322176 0.633880
1.113530 -3.348513 0.622624
0.228275 4.566601 1.045298
-4.923022 -2.760919 1.592941
3.300654 -0.422506 0.553641
2.041224 -3.852640 0.950472
1.618293 1.032823 0.184280
-4.312193 -1.245489 1.007313
-1.379441 -1.468265 0.202933
4.353823 3.269769 1.482358
3.625892 -4.904383 1.860003
-2.144571 2.979468 0.673821
-3.429411 0.714486 0.613568
-0.509120 4.860985 1.194419
-1.441696 0.894432 0.143925
1.822264 -4.446209 1.154471
4.664348 -4.493547 2.097405
-1.369986 3.831530 0.827874
-4.377758 3.412141 1.540374
3.976140 -1.541099 0.909234
-4.620503 1.180325 1.137111
4.527659 -0.104086 1.025526
1.645794 4.671641 1.226643
4.416892 4.499609 1.987771
-3.003403 4.838390 1.621522
-4.593002 3.664488 1.726207
-0.117900 4.095516 0.839358
-0.493766 -2.827212 0.411847
-1.685077 3.310068 0.689802
4.576565 2.088571 1.265354
3.225837 4.627865 1.591158
1.615820 0.712618 0.155935
-3.371417 -4.148328 1.428754
2.343234 0.973989 0.321970
2.270125 1.865809 0.431735
-0.749318 -2.796790 0.419176
4.247859 -1.058866 0.958275
-3.330221 0.985034 0.603033
-2.326624 -1.258943 0.349906
-4.367757 -1.250523 1.032055
2.954510 -3.669134 1.109583
1.217594 4.407467 1.045415
-1.850597 2.504944 0.484973
-3.361863 -4.987566 1.808897
-4.598522 2.656133 1.410072
-3.332544 2.397950 0.842801
-0.467154 -4.902690 1.212730
-2.528230 -1.303957 0.404613
-2.410178 1.067477 0.347423
3.755764 -0.472493 0.716451
0.151377 2.779861 0.387527
2.292520 -0.745417 0.290565
-4.642891 -3.461370 1.676876
-1.348366 4.764156 1.225764
-0.208307 -2.579600 0.334886
-3.135831 2.176923 0.728622
-3.798085 -3.568437 1.357959
3.703038 -1.709874 0.831808
4.394316 -0.579724 0.982305
-4.211933 -3.077680 1.360625
-1.509813 -0.500404 0.126497
4.582856 -3.428372 1.637815
-4.168383 0.590065 0.886180
1.436414 1.637133 0.237174
4.722214 -4.375657 2.072284
4.782237 3.711321 1.832185
-0.287767 -3.148591 0.499822
-3.372509 -2.746376 0.945820
-2.979157 1.613498 0.573938
3.896014 -0.312489 0.763829
4.116830 -0.006044 0.847416
1.078796 -3.718450 0.749534
2.661764 3.057358 0.821621
2.399313 1.170542 0.356344
1.618216 -3.646180 0.795662
3.272770 -1.260006 0.614932
1.854066 3.104099 0.653650
0.340023 0.683550 0.029143
-2.630436 -3.913512 1.111739
2.438881 -1.272230 0.378336
-0.265621 -2.573056 0.334559
-2.052083 0.174656 0.212077
3.019463 3.433611 1.045342
1.967136 -0.637329 0.213791
4.373396 -0.666580 0.978546
-3.345584 4.053509 1.381193
1.491893 0.761854 0.140308
-2.557605 0.661911 0.348974
4.035830 -2.380901 1.097831
-4.005006 1.077227 0.860025
1.561618 0.759105 0.150745
2.910857 -1.031485 0.476853
-1.450822 4.906956 1.309155
4.541381 3.818910 1.760411
3.507307 2.495863 0.926527
-2.053817 0.373456 0.217882
-4.924589 -0.379402 1.219776
-2.033428 -3.151026 0.703190
-2.186895 -1.942625 0.427815
3.899646 2.739608 1.135635
4.671212 -0.462510 1.101707
-4.295600 3.822695 1.653259
-0.287052 -3.520889 0.623953
0.483320 0.083471 0.012028
-4.070883 1.469657 0.936599
-1.225023 0.168485 0.076453
-1.829176 3.892269 0.924782
0.360564 4.895633 1.204861
1.611909 -3.841653 0.867828
2.034851 -3.700451 0.891698
-3.632450 -3.696759 1.343036
3.129477 1.811771 0.653807
1.785420 -1.273239 0.240443
3.890749 2.333147 1.029075
-0.506639 -0.945285 0.057512
3.938898 1.276067 0.857163
3.657741 2.698580 1.033070
-0.615907 0.482159 0.030591
-1.188567 0.395036 0.078437
4.328120 -4.117657 1.784386
2.151647 -0.892183 0.271279
4.282453 0.457772 0.927448
2.969748 -0.380192 0.448197
1.092974 4.007820 0.862861
-3.841472 4.065306 1.564181
-2.085193 3.219174 0.735556
4.688424 -1.247019 1.176819
-1.805779 2.172992 0.399136
-4.067451 -1.047115 0.882031
2.075534 -2.674064 0.572923
2.340043 -1.570974 0.397188
-2.145423 -4.290354 1.150499
-2.023280 -1.682225 0.346177
-0.311070 -0.392578 0.012544
-4.782111 4.554809 2.180743
2.893230 -1.865894 0.592617
-1.829112 4.024535 0.977127
3.537631 -2.711417 0.993331
3.026304 -3.090311 0.935427
1.614020 0.189955 0.132057
-1.751251 1.725114 0.302145
0.163166 -4.556677 1.039497
-0.551707 -2.789341 0.404240
-1.611181 -0.443163 0.139615
3.481363 -1.689957 0.748792
-0.164929 2.126211 0.227399
3.327231 0.111606 0.554146
-3.947815 -3.396409 1.356042
-3.589752 3.944654 1.422331
4.773203 -2.070943 1.353614
0.877685 2.311311 0.305624
0.097697 2.799158 0.392241
0.231561 4.631577 1.075256
-2.847312 -0.014925 0.405370
2.187039 1.158355 0.306246
-4.152194 -1.651237 0.998365
0.733237 1.781793 0.185621
0.707688 -0.366165 0.031745
4.141884 -0.623476 0.877196
0.261828 3.554675 0.635214
-3.629373 -4.498312 1.670358
0.727533 3.819624 0.755942
-4.086724 3.520698 1.454831
-2.962062 0.063663 0.438893
-4.688914 -0.097971 1.099776
0.132936 -1.381926 0.096370
-4.154674 4.941738 2.084104
-0.306056 -3.888307 0.760630
4.329450 0.902152 0.977901
2.197614 1.816816 0.406516
-4.225883 4.343300 1.836117
-2.757902 2.802035 0.772871
1.736624 1.438472 0.254253
3.947019 -3.831877 1.513112
-4.670814 -1.262665 1.170541
3.124511 -3.611584 1.140305
0.618139 3.812127 0.745721
0.460913 2.496212 0.322176
4.578132 2.575368 1.379591
2.476446 1.522565 0.422550
3.501189 0.070435 0.613164
-1.460044 -3.500289 0.719188
0.543640 -1.703051 0.159796
1.154057 -3.630842 0.725743
-1.784161 2.249131 0.412091
0.702481 -3.397712 0.601896
-2.633446 2.021136 0.551001
-3.566243 1.922554 0.820715
-1.260297 -0.406955 0.087698
2.392896 -3.647713 0.951588
4.161871 -1.851992 1.037552
-0.422859 -1.799069 0.170773
1.428237 2.003851 0.302764
-3.969629 -3.862570 1.533870
4.044638 3.290686 1.359386
0.686042 2.610073 0.364157
2.803382 -3.136931 0.884964
2.944412 2.191644 0.673643
-2.435195 1.685132 0.438492
0.291745 2.481208 0.312075
4.604798 -3.110714 1.544035
-4.103655 -3.424097 1.428221
1.830499 -2.635160 0.514740
4.622641 -1.341283 1.158392
-1.994229 2.936650 0.630043
3.614479 2.379239 0.936262
4.336575 4.254516 1.845340
2.470862 -4.413704 1.279297
-2.686717 -4.884437 1.553809
-1.659993 1.991388 0.336060
-4.641907 -2.207125 1.320935
3.314532 -1.659211 0.686955
3.496112 0.468020 0.622092
1.327103 -3.975869 0.878437
-1.474721 1.426944 0.210549
-4.231890 -1.748526 1.048312
2.530576 1.327151 0.408257
2.265262 3.340069 0.814374
4.126025 -3.288887 1.392043
2.305320 4.308731 1.193983
3.286949 0.306881 0.544911
2.459546 4.229278 1.196808
1.306872 -2.922699 0.512504
-0.730336 1.045627 0.081336
4.021173 -0.961129 0.854680
1.509686 2.742222 0.489947
-1.016447 1.059089 0.107742
-4.165307 -0.054845 0.867640
-2.092951 4.129854 1.071807
0.437267 -1.228829 0.085061
-2.243646 -2.800198 0.643753
-2.787647 1.081012 0.446978
0.273935 1.240284 0.080667
-3.301797 -0.609054 0.563640
3.004101 -0.133900 0.452127
-0.156318 4.595534 1.057168
0.738628 2.326857 0.297992
-3.526167 -3.893982 1.379848
-1.754237 -2.878699 0.568213
-0.899103 4.755766 1.171285
3.082128 2.264656 0.731409
2.701595 4.150451 1.226243
-2.770225 -1.961385 0.576059
1.161791 2.418669 0.359986
-2.565436 2.140027 0.558059
4.882472 -2.053100 1.402687
4.521239 0.508163 1.034992
0.632647 1.274151 0.101185
1.989026 -0.188682 0.199591
3.014304 3.271787 0.989531
2.209984 3.328690 0.798211
1.998287 3.506005 0.814261
4.585540 3.034236 1.511688
0.964561 -0.119165 0.047229
1.363027 -1.185617 0.163176
3.492688 3.313763 1.158995
1.698909 -0.097985 0.144795
2.329326 -2.536286 0.592925
-2.658313 0.073435 0.353601
-1.287331 -3.581502 0.724219
-3.526987 1.916295 0.805591
0.057654 -1.640787 0.134775
-0.442726 -2.393412 0.296221
4.971628 4.565087 2.277855
1.112087 2.768810 0.445152
2.864448 2.870695 0.822298
-1.659853 1.237220 0.214291
3.315453 3.391728 1.124803
1.150850 2.591625 0.402049
1.969923 0.987737 0.242811
-2.055692 4.611244 1.274472
0.486384 -3.084051 0.487397
1.340370 4.433797 1.072757
0.890947 -0.985618 0.088261
4.151937 0.283990 0.865962
3.982727 -3.772607 1.504734
4.709841 0.401074 1.117173
1.674280 1.112068 0.201995
4.719141 4.977015 2.352049
3.324780 4.751924 1.681747
-2.291679 4.663973 1.350222
-0.725643 -1.516119 0.141259
-2.616076 4.912665 1.548906
-4.958028 -0.445218 1.239013
-3.119512 3.518363 1.105512
-4.959394 -2.836800 1.632151
2.198385 0.058332 0.241815
-0.744657 4.660121 1.113562
-1.874253 4.470314 1.174827
2.617209 1.837349 0.511282
3.324868 2.978143 0.996204
4.752995 -3.235733 1.653047
1.420136 2.216585 0.346502
-0.384710 1.180508 0.077080
-1.947357 -4.084483 1.023760
-2.776818 -3.868410 1.133766
-2.870740 -3.915564 1.178640
-0.908106 2.243569 0.292913
4.917864 -3.582848 1.851109
-4.991463 -0.322677 1.250941
-3.027941 -1.430182 0.560692
-3.116070 0.505041 0.498248
2.171195 2.064765 0.448867
-1.475153 1.847225 0.279416
-0.427392 0.155199 0.010338
-3.513759 -0.356651 0.623685
-0.950030 -1.021844 0.097336
-3.968002 3.619099 1.442146
0.330433 -1.691482 0.148515
-4.020616 -2.406342 1.097792
2.905084 2.433155 0.717988
0.666017 -1.402365 0.120510
2.239679 3.469986 0.852848
-0.814836 -1.721113 0.181309
-1.185087 2.019448 0.274130
-4.017911 -4.548910 1.841810
0.238556 -1.144371 0.068325
0.145022 -1.567698 0.123935
-0.318980 3.166787 0.506515
2.405184 4.670554 1.379949
3.325044 -0.391187 0.560447
2.507897 3.248363 0.842070
-3.561343 1.996947 0.833548
1.220595 4.673860 1.166741
-4.196769 3.111085 1.364586
1.946223 -4.225219 1.082013
-1.181609 2.132817 0.297255
-3.675010 0.354997 0.681586
3.620509 -4.835639 1.824575
1.140083 -2.486870 0.374216
-1.452750 4.217552 0.994912
-4.692728 4.260614 2.008726
0.373103 2.988505 0.453518
4.232259 4.817796 2.056159
0.963798 3.065452 0.516295
4.716506 -4.897958 2.311771
-3.635489 -2.121657 0.885910
0.683051 -4.693758 1.124896
2.981250 -4.058920 1.268134
0.255407 -2.811592 0.398514
-4.089336 0.035585 0.836197
0.828860 3.475320 0.638243
1.117379 3.619668 0.717526
2.287092 1.162019 0.329054
2.612115 4.281759 1.257830
2.707727 0.000623 0.366589
1.634444 3.890360 0.890316
-2.841888 -0.459347 0.414366
-0.957642 -2.227750 0.293997
2.761300 4.164129 1.248237
4.534270 -1.120649 1.090773
-4.210530 0.034041 0.886486
0.355367 -1.711394 0.152758
-1.874777 1.628376 0.308320
-2.746061 4.950312 1.602322
0.058107 -4.744865 1.125856
1.060893 3.998480 0.855667
-4.902278 -4.960739 2.432063
2.802066 -1.357721 0.484749
3.198821 -3.313932 1.060730
4.655108 2.573418 1.414626
-3.193563 -4.493892 1.519695
0.945526 0.534850 0.059004
-0.733746 -2.050739 0.237196
-1.651721 -3.663298 0.807397
0.656335 2.718182 0.390964
2.823831 -2.825832 0.797967
-4.769472 -2.763248 1.519170
4.694001 -2.249232 1.354635
3.098816 0.867668 0.517775
2.511537 1.596659 0.442857
2.603874 -4.823975 1.502545
-1.109393 -2.581304 0.394694
2.516206 -0.690292 0.340390
-1.132298 -1.680230 0.205264
3.987068 3.841707 1.532771
-3.227776 2.877087 0.934809
-2.076526 1.258902 0.294840
0.513375 -1.619576 0.144329
-1.807890 2.006723 0.364770
-0.757628 3.436380 0.619135
-0.075773 0.948304 0.045251
3.563533 2.844615 1.039530
0.231923 2.491050 0.312956
-1.375402 0.717373 0.120318
-2.522638 -1.878168 0.494561
-0.913240 2.457822 0.343745
0.157361 -2.932036 0.431080
2.461149 2.794883 0.693431
-3.789512 3.045467 1.181764
-2.783908 3.221449 0.906394
-1.203460 -0.270840 0.076084
-1.396016 -3.075192 0.570283
-1.082519 -4.002764 0.859698
2.935213 2.433613 0.726897
-1.758456 3.862614 0.900598
0.018982 1.508384 0.113779
1.239070 -3.558399 0.709875
-2.678214 4.348964 1.304316
2.186954 4.891020 1.435242
0.471113 -0.666214 0.033289
-0.532188 0.948253 0.059120
3.097840 2.772285 0.864109
-2.565047 2.363898 0.608374
3.831760 4.677872 1.828243
0.610487 -3.851169 0.760210
1.091749 0.807249 0.092178
3.750590 1.919314 0.887534
3.175827 3.900984 1.265178
1.015621 3.741096 0.751364
2.531877 4.779998 1.462939
-0.666805 0.120785 0.022961
0.473778 3.307609 0.558237
-4.379299 -0.727183 0.985353
-4.101421 -0.776861 0.871258
3.294254 -2.466516 0.846791
-4.403283 3.182373 1.475820
-3.306009 4.858151 1.726566
2.958327 -2.436583 0.734432
-4.988540 -4.438684 2.229373
-2.175957 3.155424 0.734575
0.840387 1.202301 0.107589
0.954499 4.596988 1.102168
2.771529 -2.477608 0.690996
0.059263 -4.289723 0.920262
0.094019 -0.075577 0.000728
2.253106 -4.145340 1.113016
-0.013755 -2.382100 0.283729
1.084911 -3.740221 0.758314
3.977741 -2.758678 1.171636
-0.985490 -3.938553 0.824170
-1.148749 4.539060 1.096135
-4.964510 -2.214373 1.477490
1.134263 -0.561024 0.080065
-4.702281 3.986118 1.900029
0.041485 1.773216 0.157301
3.042338 1.180375 0.532455
0.499211 2.055632 0.223742
-2.303638 3.288223 0.805958
2.861684 3.776693 1.122632
-2.302830 1.426397 0.366882
2.330318 3.900073 1.032047
1.102585 0.353975 0.067050
-3.300037 -2.227091 0.792509
4.051339 3.800767 1.542959
-2.993563 0.414728 0.456671
4.895871 4.061376 2.023216
-4.926895 -4.598322 2.270943
-2.365166 -1.024842 0.332216
-3.001397 4.478050 1.453066
-4.860066 -2.503499 1.494387
2.323679 4.415362 1.244745
1.934258 4.539025 1.217205
2.923510 3.821423 1.157509
-2.433015 0.636680 0.316246
-0.556648 1.469394 0.123449
1.591135 3.696170 0.809669
-0.602315 2.758971 0.398735
1.973258 1.300938 0.279309
1.339734 4.822594 1.252615
-3.853522 1.856766 0.914861
2.810431 4.754820 1.525342
2.206764 -4.426115 1.223015
1.558344 -3.610396 0.773170
-3.449064 -0.485412 0.606583
-2.320036 -1.151205 0.335392
-1.068230 2.827348 0.456751
-2.200704 -3.393860 0.818069
-2.721897 4.760952 1.503769
3.053577 -1.849341 0.637220
1.382322 -0.710763 0.120800
0.654721 -2.252550 0.275132
-2.740473 0.793636 0.407003
4.180766 -4.413713 1.847983
-3.088170 -3.503225 1.090469
2.949509 2.457977 0.737063
4.666727 -3.134994 1.580326
2.270927 -2.644855 0.607619
4.928588 2.929822 1.643742
1.510511 -4.066988 0.941102
-2.825397 -0.625262 0.418691
-2.961805 -4.769366 1.575957
-1.754357 -1.531926 0.271228
-4.928700 1.989814 1.412572
1.816985 -4.098967 1.005148
-2.313322 3.883346 1.021592
3.151832 4.094990 1.335150
-1.408273 -3.950096 0.879325
-0.200435 4.907324 1.206100
4.656889 -2.024704 1.289302
-2.578279 -4.158983 1.197233
2.212541 -4.949329 1.469560
2.551178 -0.914771 0.367266
-2.790018 1.298100 0.473463
0.009968 -1.678208 0.140824
-1.497981 3.367174 0.679090
2.719062 2.166063 0.604256
1.224833 -1.498385 0.187269
-0.240169 2.343097 0.277389
2.793633 4.404877 1.360366
-2.648444 -4.069040 1.178567
2.536219 -1.938960 0.509599
3.653743 -0.366741 0.674217
3.786216 -0.020099 0.716792
2.836736 0.421956 0.411256
-0.919858 -1.993731 0.241055
4.818080 1.672596 1.300574
-1.204064 1.450845 0.177736
1.386254 0.778215 0.126366
-3.389258 -3.862383 1.320254
4.804489 -0.230321 1.156808
2.039859 -1.437731 0.311405
2.533775 -0.089615 0.321402
-4.342233 4.218664 1.832606
2.634178 -0.194687 0.348840
2.747234 -4.860192 1.558438
1.717727 -0.611633 0.166234
-2.080904 3.206482 0.730584
-0.103100 2.800609 0.392702
-3.895656 0.133901 0.759703
-0.284129 -2.502310 0.317114
-2.561761 -0.349113 0.334225
-1.509030 0.637022 0.134148
-3.373996 4.998714 1.818550
-2.699456 1.441781 0.468290
-4.234314 1.942649 1.085165
4.199014 -0.085459 0.881951
0.304107 -1.455104 0.110491
-1.032580 3.129530 0.543009
0.350292 -0.050677 0.006264
1.282932 4.946901 1.305887
4.218788 -0.428794 0.899102
-3.213070 -4.319997 1.449310
-2.044475 1.825781 0.375668
4.757893 -4.533585 2.159547
-1.288070 -2.494984 0.394203
-4.774383 -1.462617 1.246699
-3.523565 2.394836 0.907537
-4.736613 -0.057641 1.121941
4.899231 -4.713541 2.310997
-2.211292 1.168499 0.312760
4.235428 -0.885638 0.936160
4.958863 4.218345 2.119238
0.998412 -0.004377 0.049842
-4.668037 2.089751 1.307881
-4.184084 -2.811315 1.270502
-0.184109 2.609736 0.342231
-0.938280 2.209553 0.288125
1.061773 4.040817 0.872778
-0.611522 -4.661784 1.105309
4.340768 -0.524993 0.955894
0.347397 1.791554 0.166518
1.937261 -4.048361 1.007110
3.964853 -0.893959 0.825961
-3.531281 4.421466 1.600965
-2.702653 -0.640655 0.385739
-3.926813 4.854048 1.949082
-3.603616 -4.431609 1.631261
0.125840 2.178298 0.238041
-1.788207 0.810162 0.192702
-0.768272 0.005397 0.029514
4.824898 4.708474 2.272469
-3.432957 -3.703496 1.275054
0.408121 3.959990 0.792404
-4.011288 1.912404 0.987386
-1.815037 -2.410039 0.455132
0.275259 4.016691 0.810479
4.466317 -0.707051 1.022396
-1.087718 3.142273 0.552851
-4.350933 -1.111635 1.008318
-1.118386 3.509308 0.678302
-3.542588 1.366291 0.720834
-2.700104 -3.589534 1.008766
1.180906 1.496632 0.181722
-4.325761 -3.086552 1.411951
-0.352762 -0.880774 0.045010
1.094616 -3.297044 0.603434
-0.781416 -4.779839 1.172874
-4.808736 -2.881135 1.571244
4.855194 0.363720 1.185260
-1.328842 -0.184390 0.089991
2.785772 0.014971 0.388037
-1.743535 -2.523131 0.470305
-0.249832 1.851612 0.174544
-1.115364 2.042633 0.270819
-1.574608 -1.420322 0.224835
-4.781486 3.811701 1.869584
-1.399791 1.440232 0.201684
3.894900 2.130393 0.985441
1.903933 -2.226601 0.429136
-3.545771 -4.993884 1.875568
0.911550 3.653756 0.709043
3.922309 3.224244 1.289013
2.000340 -3.768081 0.909990
-3.513156 -1.258949 0.696361
3.678325 1.613393 0.806656
-1.984560 1.521109 0.312612
-0.459239 3.603503 0.659807
0.261428 -3.597318 0.650452
3.505066 -0.700603 0.638817
4.316075 -4.027756 1.742566
4.296529 -1.104048 0.983954
-4.920458 -4.848926 2.386149
4.218885 3.982731 1.683057
-4.456130 0.270440 0.996512
-2.342263 3.498023 0.886118
0.149879 -4.400953 0.969543
-0.200743 -2.725419 0.373410
1.047098 -2.406200 0.344311
-0.205538 -1.133085 0.066306
4.343757 3.028664 1.402051
-2.594512 -1.134421 0.400920
-2.259753 -2.953465 0.691472
4.207379 -4.350097 1.831269
-4.232605 -4.205083 1.779883
1.095608 2.600472 0.398141
1.817360 -0.551970 0.180373
0.055417 2.261811 0.255943
1.942319 1.822871 0.354773
-3.272454 -3.646375 1.200250
3.526322 -3.571121 1.259393
-3.599743 2.553420 0.973905
-0.991876 2.212683 0.293989
-4.247424 -1.219692 0.976413
0.452111 -4.225777 0.903080
1.697458 -4.879020 1.334310
4.412216 -2.118431 1.197770
2.393362 -4.907777 1.490723
0.411029 -2.699274 0.372751
4.326170 -0.804993 0.968188
-0.215632 -3.785842 0.718955
0.612057 -3.957222 0.801711
0.960985 3.964374 0.831988
-0.900203 0.854700 0.077044
3.384827 4.344557 1.516611
-3.148241 -1.541738 0.614419
0.548422 1.771449 0.171940
2.222333 -2.953083 0.682973
4.039762 1.183403 0.886006
3.839184 -3.704143 1.423000
0.087403 -4.979194 1.240000
1.431615 4.315318 1.033574
-1.057623 0.548944 0.070995
-0.318222 4.269407 0.916455
4.062658 -1.661685 0.963319
4.307040 -1.722139 1.075818
3.954141 -0.993450 0.831109
-3.616291 2.060410 0.866143
3.500840 0.658086 0.634448
4.483637 4.253549 1.909784
-1.387503 -4.745591 1.222290
0.186463 2.081959 0.218466
2.790953 -1.696723 0.533414
0.620781 -3.197663 0.530521
4.934835 0.103956 1.218170
-0.442866 0.050638 0.009935
2.139427 -3.629890 0.887662
2.925911 -2.981039 0.872378
-0.058996 -0.918353 0.042343
3.569838 -0.911886 0.678764
0.461546 -1.824419 0.177076
-0.883492 -3.514548 0.656630
-3.921763 -4.956263 1.997239
-1.065864 4.702351 1.162408
2.339365 4.434992 1.257089
4.212864 -0.163496 0.888748
-2.483206 4.950518 1.533697
-1.447645 1.736543 0.255563
-3.460390 -4.311425 1.528134
1.907229 -3.822818 0.912573
4.601884 4.161108 1.924608
1.409522 1.300522 0.183906
1.170765 3.431836 0.657410
0.534899 3.982696 0.807399
-4.115443 -0.520580 0.860394
2.295038 -4.514740 1.282504
1.020495 -3.117197 0.537916
1.614768 -4.334281 1.069673
3.988111 -3.112602 1.279666
2.839608 -0.894671 0.443190
2.809153 -3.818032 1.123435
4.271838 -3.332668 1.467764
4.899350 -0.541782 1.214858
0.812827 -1.598290 0.160761
-3.911184 -0.323419 0.770098
-0.408701 -0.708280 0.033435
2.876011 1.444780 0.517942
-4.722747 4.371895 2.070890
-4.431126 -3.921357 1.750596
-4.328422 -4.007399 1.739724
2.310358 3.528061 0.889248
0.011666 0.063967 0.000211
-1.311021 2.664050 0.440797
-3.943830 -2.845781 1.182613
2.322403 3.288626 0.810431
-1.789802 4.238466 1.058399
-2.346759 1.354830 0.367142
1.523192 -3.941210 0.892662
0.590109 3.952948 0.798701
-1.375894 2.924877 0.522400
1.414875 2.508778 0.414792
-2.287785 -4.632718 1.334802
2.948303 2.989625 0.881517
-2.706810 -3.620490 1.021739
-3.411623 -2.776138 0.967306
2.824394 0.771348 0.428609
2.078920 -2.350192 0.492266
-3.173610 1.613482 0.633756
-3.837542 1.080704 0.794733
3.383991 -3.918504 1.340303
2.765985 1.560146 0.504236
-1.727426 4.239549 1.047889
1.581974 -3.388901 0.699365
-3.758398 0.970620 0.753383
0.070477 -1.581346 0.125281
-4.812697 -0.403883 1.166259
-1.083981 -2.129998 0.285595
-4.251572 -1.458694 1.010182
-0.248528 -4.710882 1.112709
-0.783184 4.815517 1.190129
-0.556150 1.247999 0.093340
-4.546687 0.007056 1.033621
-1.383837 -1.162847 0.163361
2.564838 0.393746 0.336672
-1.310856 -1.198940 0.157790
2.151720 -1.400921 0.329624
-1.305213 -0.360535 0.091678
-0.767606 -2.240170 0.280379
0.638921 -3.199501 0.532251
4.506819 0.566059 1.031592
-3.911396 3.427654 1.352391
-4.670862 -3.471718 1.693489
1.079572 -4.672657 1.149960
4.490971 -2.531883 1.328962
4.897231 4.797206 2.349803
-0.158358 3.287581 0.541663
-0.319184 0.958661 0.051045
1.449638 4.292489 1.026346
0.556348 -0.547209 0.030448
1.340881 4.832806 1.257699
3.739994 -2.036980 0.906842
2.463062 -2.596943 0.640539
-0.031226 1.380482 0.095335
-0.381355 -1.218460 0.081504
1.396017 1.263655 0.177284
-0.442937 -1.950045 0.199943
-0.422206 1.179183 0.078436
-4.836941 -2.242537 1.421249
-3.259359 -4.490279 1.539301
-0.114864 4.121359 0.849940
3.226535 3.832052 1.254757
-2.212730 4.707981 1.353063
0.226434 2.165272 0.236984
-1.550379 1.827212 0.287119
-3.951960 0.590031 0.798306
4.582985 -3.740576 1.749783
3.546739 -3.107647 1.111841
-4.215076 -2.105303 1.109958
2.197873 3.901564 1.002642
-1.524201 -3.270305 0.650904
4.948498 4.228732 2.118490
-1.976015 0.227857 0.197828
-2.612616 2.155696 0.573639
0.678905 -3.897555 0.782592
3.351262 -2.309665 0.828275
-3.074811 4.585186 1.523920
2.094028 -2.338501 0.492677
-4.385934 -2.034783 1.168838
4.189347 -3.024026 1.334768
-4.189251 -3.709263 1.565423
4.142314 -2.667424 1.213696
-0.091928 1.423269 0.101707
-0.519089 -0.446323 0.023433
4.733071 0.537558 1.134546
4.903842 -3.776352 1.915425
1.501781 3.021164 0.569139
-3.728807 2.840947 1.098749
0.061701 -4.784101 1.144571
0.291631 -1.164849 0.072096
0.144464 -4.312294 0.930837
0.694918 2.921058 0.450775
-4.812753 2.372697 1.439614
2.112273 4.019881 1.031057
2.123943 -2.635960 0.572971
-3.845302 -0.437041 0.748868
0.702394 -3.155121 0.522407
0.683612 -1.287651 0.106268
1.824504 0.222433 0.168915
-4.146023 -4.466692 1.857042
1.265033 2.148704 0.310862
-2.192480 0.432934 0.249720
0.070030 3.289590 0.541315
2.733236 -2.282195 0.633950
2.056459 4.033211 1.024791
-3.810970 4.986943 1.969654
0.911848 4.192984 0.920629
4.691165 2.778925 1.486473
-3.432306 3.123688 1.076907
3.529071 0.737442 0.649908
2.025481 -3.098461 0.685152
2.740033 1.770407 0.532106
-2.180417 2.127530 0.464030
-2.121111 4.853851 1.402949
4.060195 0.413013 0.832788
-1.401680 -2.286310 0.359596
-4.369846 1.836725 1.123456
1.005967 4.793758 1.199604
-3.751823 -3.227861 1.224763
2.965962 -1.740021 0.591230
1.417464 0.418810 0.109230
3.747265 -3.297854 1.245892
2.848372 -4.777794 1.547027
-3.878864 -1.630169 0.885152
-1.189293 3.653708 0.738200
2.745602 -4.565316 1.419022
-0.826585 -0.710709 0.059418
4.723655 2.622008 1.459392
2.357404 4.531826 1.304740
-4.845001 4.854754 2.352133
3.799857 -0.780306 0.752390
-3.991952 4.503843 1.811014
-3.594763 -4.645810 1.725294
2.344924 2.459169 0.577309
3.649686 1.427460 0.767892
0.363496 -2.504781 0.320303
-2.109503 0.073185 0.222768
-1.486845 -3.704463 0.796688
-1.571107 3.715972 0.813841
-1.733219 -1.421019 0.251167
-2.570903 1.260445 0.409913
1.088671 -3.412237 0.641428
4.004053 -2.938352 1.233318
-1.929176 4.919564 1.396191
-3.133057 2.530864 0.811066
3.385777 4.619719 1.640264
2.417833 -2.041488 0.500680
4.308370 -3.354371 1.490693
-3.344803 0.030685 0.559432
-3.557487 -0.053317 0.632928
0.414294 -3.250535 0.536881
1.144337 2.332196 0.337432
-0.198266 -1.382225 0.097493
0.989666 -3.136348 0.540806
-3.196202 -1.680166 0.651933
-0.203862 0.636587 0.022340
1.580926 2.264709 0.381412
-0.672936 -0.181091 0.024282
1.794473 0.255950 0.164282
-0.488087 -3.610541 0.663712
-1.664004 4.146909 0.998288
-1.963950 4.287242 1.111877
-0.890979 1.834266 0.207919
-4.769104 -4.823686 2.300615
1.685251 0.370742 0.148876
3.451056 1.292190 0.678977
-1.453729 4.946542 1.329080
-4.539669 4.960670 2.260842
4.867756 3.576112 1.824181
-2.363017 -4.361690 1.230410
-3.733789 4.532764 1.724356
-1.302475 1.126612 0.148285
2.385570 3.008868 0.737212
-2.060834 -0.928072 0.255418
0.747032 -1.803305 0.190498
-0.844400 -0.367559 0.042406
-3.822360 -3.531255 1.354010
-1.697130 -1.429339 0.246163
2.248705 3.576175 0.892285
1.120039 -4.620495 1.130173
-3.802216 -3.491220 1.332273
-3.366776 -3.748838 1.269448
1.407334 -0.969245 0.146001
3.134154 4.969869 1.726126
-1.505255 -3.266421 0.646765
0.953108 -3.545174 0.673833
-3.293564 4.150557 1.403735
-1.886237 3.820505 0.907707
-4.797298 -4.677596 2.244699
2.682759 2.517060 0.676639
-0.989902 1.554657 0.169843
3.161256 2.677408 0.858103
2.083730 -0.054975 0.217248
3.287443 4.913792 1.747632
-2.143413 -4.561530 1.270089
-3.148913 -2.656284 0.848575
4.719057 -1.034540 1.166989
2.173278 -0.502221 0.248768
3.340423 4.213674 1.445674
-4.868666 0.600044 1.203198
-1.455384 -4.548890 1.140527
2.428167 -0.921370 0.337246
-4.220172 -0.835096 0.925362
0.673399 4.654909 1.106082
-0.709272 0.991971 0.074354
-4.823835 1.356511 1.255475
-2.640244 2.132530 0.575929
-2.152080 2.700393 0.596179
-3.881401 1.350511 0.844457
1.315369 -2.628056 0.431844
-2.576021 3.740459 1.031346
-2.223805 2.321198 0.516663
3.982386 2.418705 1.085477
-0.328769 4.965567 1.238247
-1.078719 3.025265 0.515793
2.238710 3.291514 0.792294
4.096138 4.514055 1.857752
-4.749637 -3.488660 1.736490
-0.517612 -0.022726 0.013422
1.107814 0.805670 0.093818
-1.814369 -1.707243 0.310331
2.724077 3.394033 0.947003
4.714771 2.624196 1.455773
4.434274 2.208831 1.227086
-2.340175 4.971494 1.509609
-2.736617 -2.406186 0.663940
4.574905 2.354573 1.323689
-0.413715 0.514045 0.021770
-2.917023 -1.870108 0.600316
2.069970 -3.394131 0.790245
-2.155797 3.958838 1.015993
-2.327530 0.954555 0.316429
3.792490 3.249338 1.247059
-3.375208 0.453450 0.579882
-4.356071 -2.800229 1.340832
-2.308136 -1.624512 0.398326
1.069454 -1.184612 0.127352
-3.769121 4.729348 1.828651
-0.284053 -4.943667 1.226027
1.273371 4.856660 1.260431
3.487370 4.804616 1.762304
-2.701304 4.961508 1.595680
3.173463 -0.234118 0.506284
-2.650937 4.638090 1.426967
1.767665 -1.044008 0.210730
-0.693264 -4.737056 1.146016
-3.853188 -2.756528 1.122275
2.142635 4.452962 1.220988
-2.822374 -4.862353 1.580414
-3.233766 0.459941 0.533439
-1.416771 -4.243984 1.000932
1.532902 -2.136034 0.345622
-2.660035 -4.119071 1.202127
-3.163385 3.595286 1.146654
-4.900464 0.910707 1.242197
-0.283569 4.021065 0.812469
-0.713544 1.883532 0.202842
-2.661323 4.710291 1.463474
-4.463478 0.098777 0.996620
-0.707441 1.387106 0.121227
2.882051 0.763088 0.444426
2.152821 -0.157396 0.232971
3.607949 3.459594 1.249304
-4.904173 1.445251 1.306983
4.664193 3.013123 1.541680
-1.585877 2.863639 0.535772
4.903978 -3.089548 1.679715
-2.473805 1.501635 0.418731
-0.284636 -3.003520 0.455107
-1.460723 0.833205 0.141397
-1.442393 1.774347 0.261440
3.422821 4.972351 1.821999
2.464189 -4.694580 1.405566
4.921514 -4.087576 2.046479
1.135147 -4.229733 0.958960
-0.367434 -1.016387 0.058403
-4.099261 3.215884 1.357293
4.965614 3.440563 1.824740
0.515307 2.369796 0.294074
2.004775 3.968782 0.988518
-0.932576 -1.771401 0.200378
0.477157 -4.118454 0.859467
4.425777 -4.418470 1.955519
-3.335806 3.521327 1.176367
-2.076274 2.304363 0.481050
-3.479403 1.986153 0.802552
2.922159 -1.603237 0.555469
-4.379547 -1.200948 1.031136
-4.183684 4.581135 1.924500
-2.015059 -4.361953 1.154355
0.141882 2.737317 0.375652
-0.937252 -1.903667 0.225119
-4.551837 -4.609454 2.098314
4.574916 2.425701 1.340694
4.528695 -1.690881 1.168408
-2.206437 2.221475 0.490166
2.315256 2.076544 0.483622
0.785754 0.347869 0.036921
-2.625233 2.773731 0.729272
-2.378284 0.810383 0.315648
-0.088468 -2.133631 0.228010
-0.807631 2.341153 0.306663
-2.087707 0.891398 0.257656
3.075116 -4.872727 1.659990
-0.185371 4.016442 0.808308
1.548481 0.456436 0.130306
-3.107265 3.686273 1.162185
0.335077 3.827368 0.738051
-1.820240 -0.550333 0.180807
0.264136 0.076600 0.003782
2.808258 -0.842456 0.429802
2.689132 -0.505632 0.374355
-1.457793 3.951472 0.886964
1.942771 2.881440 0.603853
4.412900 -3.734743 1.671099
1.256693 1.103078 0.139803
-3.515899 4.959066 1.847694
1.797086 0.955507 0.207126
-3.950956 2.858716 1.189116
3.721104 2.690615 1.054301
0.166605 -1.496825 0.113412
-1.148593 -1.281507 0.148076
-4.429934 2.240764 1.232267
-1.192163 -0.000165 0.071063
4.032067 0.705707 0.837779
-4.790170 2.129058 1.373931
