ply
format ascii 1.0
comment vertical tower
element vertex 1710
property float x
property float y
property float z
end_header
0.432489 -0.516913 4.452685
0.060250 0.130706 8.640490
-0.167464 -0.817971 4.890986
0.076634 -0.226148 4.353354
0.493631 -0.551496 5.265456
0.425571 -0.751644 3.807670
0.316219 0.850966 5.154000
0.807555 0.399886 1.353448
0.219777 -0.662342 9.679468
-0.970981 0.898792 0.341299
0.236128 -0.568016 4.832074
0.225118 -0.528773 2.099925
-0.860728 -0.733459 0.583558
-0.144540 0.455706 6.517054
0.302193 0.141751 9.851813
0.409002 -0.883498 7.496050
0.786099 -0.949400 2.540207
0.682762 0.065319 4.933891
-0.766896 0.303062 0.497816
0.217569 0.645747 5.316703
0.192963 -0.043454 0.994632
-0.392504 0.353061 7.946076
-0.631789 0.467311 0.567064
-0.600983 0.226105 0.093610
-0.644904 -0.295567 8.615570
0.612527 -0.736209 9.425422
-0.703214 0.295077 0.865540
-0.471216 0.537393 2.789167
-0.564423 -0.620346 7.416973
0.425714 -0.010267 5.396535
-0.683208 -0.205509 9.492368
-0.951870 -0.588594 3.891800
-0.251549 -0.509374 0.033229
-0.389811 -0.524652 0.197456
-0.204591 -0.162138 5.648545
0.507631 -0.219076 7.521054
-0.975266 0.108357 7.906170
-0.924585 -0.813579 9.115170
-0.488711 0.162501 2.290745
0.778417 -0.956308 7.384059
-0.661851 -0.485250 8.270981
0.994076 0.004276 8.362754
0.611385 0.373873 4.115436
-0.087727 0.542531 6.259830
0.495724 -0.928877 5.515653
0.037630 0.074974 5.974859
0.131985 -0.291127 2.820312
0.161543 0.389818 6.832344
0.297441 -0.432440 7.100173
-0.878472 0.487447 1.959484
0.232996 0.204474 4.436324
0.433897 0.579345 4.221056
-0.378554 0.968788 7.489506
0.957158 0.817172 6.665031
-0.711110 0.186580 4.761958
0.820885 0.787524 6.525313
0.352899 -0.693820 2.628616
0.328629 -0.913930 2.323479
0.752045 0.066266 2.399197
0.663458 0.948740 0.294977
-0.309131 0.419473 6.910763
0.410740 -0.389715 9.858481
-0.898795 0.337543 3.090321
-0.071963 -0.920185 9.298334
0.875555 -0.058761 6.065426
-0.451821 -0.525489 2.249343
-0.900058 -0.901604 0.118646
0.165890 -0.500179 7.237314
-0.289800 0.444921 6.965742
-0.240633 0.102378 2.292533
0.164914 -0.953130 3.327051
0.243178 -0.180524 8.980467
-0.125356 0.504342 1.572333
0.015098 0.909209 8.354439
0.986512 0.748715 1.692234
0.914296 -0.996960 4.817271
0.414634 -0.562596 4.989653
-0.677041 -0.584526 4.720896
-0.280080 -0.173811 2.879296
0.766176 0.291509 2.533647
-0.152868 -0.693862 7.331548
0.910735 0.831357 2.756769
-0.023396 0.554234 6.099154
0.723538 -0.161336 8.466397
-0.929242 0.167987 8.370344
-0.131673 0.083604 1.671514
0.400524 0.164460 6.547376
0.727129 0.720231 6.022791
0.219266 -0.599761 2.819845
-0.653476 0.367428 3.914540
0.771588 -0.785934 2.851130
0.149626 -0.081672 5.370652
-0.783964 0.271678 8.036274
-0.072306 -0.974997 8.775033
0.397887 -0.783867 7.228236
-0.097969 -0.817466 4.834504
0.741580 -0.250615 9.580953
-0.152611 0.244018 5.638790
0.166905 0.991930 4.785467
-0.577659 -0.491842 8.567736
0.025373 -0.728081 1.846233
-0.554285 -0.170475 1.578783
-0.549626 -0.708049 7.825425
-0.440195 -0.950911 8.705708
-0.911601 0.127918 0.727748
-0.673381 0.759145 7.640861
-0.151279 0.721700 4.244617
-0.737879 -0.798423 7.037268
-0.733230 -0.705046 1.349693
0.935864 -0.017758 9.730128
-0.145805 -0.264567 8.812803
-0.192535 0.406149 4.059725
-0.464529 -0.010118 8.933588
0.024894 -0.959764 8.949257
0.192130 -0.430872 4.612530
-0.163629 0.802984 9.468855
-0.212383 0.023018 9.768571
0.400853 0.595898 2.172127
0.899553 -0.195408 0.666667
0.755644 0.353927 3.311498
-0.762759 -0.661994 4.888353
0.304617 0.473067 0.926764
-0.985905 0.573162 1.406596
0.266184 -0.819719 9.716991
-0.071293 -0.633379 7.373006
-0.017774 -0.074221 8.749381
0.176051 0.274873 9.711546
0.485311 0.274983 3.781444
0.458916 0.336406 6.878639
-0.911042 0.428830 1.840220
0.472989 0.011533 5.516672
0.659632 0.149711 2.098785
-0.863655 -0.983188 1.604310
-0.354107 -0.666799 0.984436
0.584128 -0.002872 5.797366
-0.013786 0.491186 9.498512
0.389782 0.617850 1.222218
0.004632 0.457887 5.023145
0.956445 -0.027195 6.870681
0.872386 -0.437445 4.958617
-0.437710 -0.110568 9.117759
-0.228230 -0.981410 1.662957
-0.137308 0.195919 0.241633
-0.791591 -0.850866 3.831181
-0.191850 -0.709220 5.554888
0.549696 0.251953 2.545071
0.693793 -0.973303 1.684335
0.772266 0.147111 8.048378
-0.970882 0.276760 1.885752
0.577612 0.576550 4.426822
0.005255 -0.863939 9.544811
-0.587682 -0.994137 6.127048
-0.002510 0.533716 4.977235
0.688521 -0.419892 3.602502
-0.131501 0.774410 5.203855
0.980922 -0.630063 7.343071
0.233366 0.171012 8.225272
-0.020473 -0.781181 6.498477
-0.410221 -0.194620 7.903171
-0.977898 0.764129 0.884178
0.221097 0.216695 0.143745
0.154991 0.379234 7.344110
0.033629 -0.548059 2.617041
0.075409 0.845502 8.776783
0.687045 0.246965 5.358507
-0.366260 -0.788229 4.785209
0.100508 -0.968896 7.728188
0.359895 -0.968155 7.410960
-0.580362 -0.897576 7.042765
0.849639 0.823232 6.899010
0.474245 -0.283243 5.153960
-0.893409 -0.403535 9.264755
0.730213 -0.166909 8.906414
0.859740 -0.180857 3.294049
0.587340 -0.523013 8.046945
-0.147551 -0.816344 8.911085
0.988754 -0.782747 6.182550
-0.751128 0.198377 5.555792
0.073212 -0.206330 6.718867
-0.659218 0.804911 1.630607
-0.121302 -0.072527 0.873437
0.854849 0.006983 8.201503
0.588522 0.856490 5.733262
0.564164 0.003281 1.225015
-0.292292 0.003964 4.163180
0.868540 -0.273674 2.982344
-0.263478 0.420824 8.754780
-0.920053 -0.215545 5.072202
0.275603 0.176644 5.775125
-0.274705 -0.105209 2.352904
-0.692550 0.057490 7.990635
0.869316 0.654055 9.301013
0.274479 -0.172534 7.924943
0.881059 -0.539844 4.928591
0.165957 0.140641 8.350889
-0.872273 0.875018 1.879589
-0.940119 0.386424 1.134137
0.801123 -0.383274 4.382191
-0.922544 0.925988 1.815345
0.230352 -0.314566 2.591606
-0.404048 0.966508 5.851168
0.375316 -0.616021 4.039031
-0.430555 0.999299 8.658783
-0.925556 -0.848189 2.256123
0.461677 0.426480 9.967907
-0.378195 0.480883 3.593934
0.101598 0.359149 5.154029
0.547732 0.555214 1.323321
0.405647 -0.056334 5.792990
-0.302858 -0.891772 9.612849
0.495653 -0.284493 7.493978
0.851362 0.284629 2.440546
0.219949 0.292494 4.426117
0.407012 -0.609612 4.254333
0.731816 -0.493990 0.979478
0.687281 -0.026604 8.858502
-0.296797 0.457221 3.814560
0.983401 0.705596 4.942596
-0.942868 -0.827030 2.912478
0.973415 0.851240 1.523956
-0.508006 0.855463 9.021106
-0.119126 -0.984133 0.373975
0.767377 0.012819 3.998795
-0.511342 0.174289 7.306954
-0.550437 0.107427 3.088579
0.286218 0.231543 4.460286
0.410901 0.006703 5.644773
-0.985059 -0.412386 9.950816
-0.099112 -0.808591 7.583013
-0.021782 -0.583241 9.671154
-0.456330 0.480510 6.931455
0.092219 -0.517873 2.690529
-0.690845 0.659421 2.874888
-0.352788 -0.193023 8.224643
0.426478 -0.171048 4.277135
0.747573 0.736997 3.702242
0.178758 -0.571422 9.450940
-0.850311 -0.620762 0.132332
0.357492 0.970813 5.249669
0.795196 0.081209 7.750767
0.008628 -0.618959 7.361690
-0.012616 -0.668390 3.675744
0.982827 0.723330 5.356483
0.272596 0.199692 0.055773
0.612058 -0.769923 5.348303
0.292987 0.773816 5.904012
-0.558169 -0.112190 8.747913
-0.431844 0.978715 2.107373
0.331412 -0.436479 8.251457
-0.087858 0.057634 7.180665
-0.191304 -0.653799 6.660309
-0.955096 -0.120588 3.943878
0.768738 -0.646925 3.674344
0.768996 -0.385538 7.032612
-0.078058 -0.460269 9.902232
0.401478 -0.433812 4.053538
-0.644361 0.939653 9.185998
0.007622 -0.923107 5.865451
-0.122269 -0.006277 8.681657
0.313227 0.258492 2.171904
-0.060708 0.321523 7.622321
-0.003131 0.509091 8.349435
-0.408575 0.521931 8.321691
-0.903154 0.911006 7.847114
0.834052 0.511336 3.041956
-0.975537 0.647378 5.219502
-0.437351 0.064631 2.997048
-0.104778 0.315347 3.429659
-0.361815 -0.043751 3.012189
0.103836 -0.447166 2.842270
-0.076774 -0.373234 6.934217
-0.489048 -0.278935 6.502637
-0.823960 -0.318713 2.042642
-0.724929 0.066322 6.915187
-0.027360 -0.504737 2.910686
0.691891 0.033284 2.017183
-0.798722 0.832483 7.472519
0.354413 -0.188072 3.628681
0.584182 -0.554708 5.693505
-0.446455 -0.306288 2.001240
0.336479 0.753775 6.136938
0.373316 0.883396 2.079934
0.415585 0.773374 1.668769
0.781618 -0.425305 3.865286
-0.202948 -0.224309 7.900618
-0.512622 0.949868 1.765343
0.087690 -0.352295 1.170266
-0.874903 -0.724280 0.316477
-0.332158 -0.435812 4.159658
0.766450 0.927955 2.820251
0.064115 -0.168249 2.921085
-0.126649 0.867764 9.819419
-0.468632 -0.791836 1.941234
-0.499249 0.532111 4.584271
-0.526776 -0.813313 9.863682
0.658467 -0.605009 0.306181
0.970041 0.232204 6.966574
0.069597 -0.131044 3.710830
-0.840333 0.333349 9.060976
0.502078 0.946813 9.119414
0.754109 -0.894573 3.872127
0.862456 -0.616747 2.214635
0.257551 0.280448 4.280034
0.013762 0.793053 9.653063
0.241055 0.595296 2.813986
-0.974099 -0.068835 9.813178
0.310840 0.490949 8.193915
0.419293 -0.583805 2.674523
0.444061 -0.972539 7.910695
0.126144 0.140033 0.497994
0.400089 0.626489 5.480634
0.277665 -0.133113 3.573491
-0.768943 0.138498 4.269360
0.796734 -0.155638 4.728543
0.245455 0.028076 5.027128
0.455589 0.768693 6.564123
-0.314225 -0.043720 6.967770
0.838479 -0.985049 9.757040
0.005232 0.599697 7.627787
0.358012 0.235435 6.877978
0.904364 0.460787 3.924589
0.832165 0.802174 1.178081
0.289598 -0.427572 0.587884
-0.668517 0.006140 4.776847
0.901137 0.204967 6.682567
0.968271 -0.309218 6.501599
-0.793207 0.692134 9.528614
-0.099405 0.395132 3.824300
0.096511 0.466815 6.277838
-0.815837 0.616015 8.878738
-0.620640 -0.483832 4.040778
0.075411 0.491284 4.777432
0.926179 0.547614 9.229729
-0.944380 0.684785 5.502420
0.824886 -0.022924 7.996099
0.797216 0.008379 9.356238
0.714357 -0.803644 5.710580
-0.244898 0.704242 1.091870
-0.018353 0.066976 8.217000
-0.192811 0.188869 8.177822
0.895172 -0.757119 1.149852
0.042701 0.203645 5.481182
-0.838775 -0.916023 4.870856
-0.451880 0.846418 8.471629
-0.075934 0.727075 2.746278
0.907112 -0.611365 4.262777
0.137902 0.187601 6.047910
0.392145 0.205398 5.172452
-0.822960 0.606865 9.550343
0.754648 0.513841 9.606573
0.078036 0.986486 0.815725
0.842457 -0.298319 2.978470
-0.109047 -0.750735 0.075348
0.366168 0.146943 4.178603
-0.058323 0.527983 6.621391
-0.714884 -0.428413 4.712848
-0.455900 -0.527587 0.671819
-0.865485 0.604909 1.959562
-0.119467 0.507445 1.732913
0.298683 -0.593216 5.111283
-0.512577 0.738541 6.776800
-0.019224 -0.730541 3.163254
-0.082053 -0.781520 1.304601
0.066841 -0.297786 7.985976
-0.630831 0.773065 8.583618
0.067968 0.390880 2.764882
-0.271589 -0.210563 4.207477
-0.427916 -0.685498 0.819311
0.171964 0.426953 2.276973
-0.703926 0.198294 7.670004
0.801317 0.975366 3.651979
0.869706 0.531119 6.046923
0.321219 -0.795752 9.461845
-0.393691 0.456430 7.236378
0.252012 -0.485106 4.534522
0.203047 0.923791 3.668803
-0.217498 -0.961453 1.905270
-0.425506 -0.523299 7.561401
-0.663094 -0.002003 1.124252
-0.565232 -0.841863 0.613937
0.306060 -0.311874 1.048287
0.771789 -0.005530 2.429054
-0.230088 -0.106133 6.271234
-0.756201 -0.078830 8.613301
-0.974387 0.758046 9.926224
-0.188189 0.010582 7.314841
-0.534866 0.882094 1.459771
-0.354889 -0.704537 2.777048
-0.516660 -0.439488 1.319867
0.328295 0.313032 1.155518
0.277029 -0.433755 5.677326
0.824609 -0.305448 9.067231
0.399490 0.802056 6.843264
-0.670117 0.077118 8.006502
0.503189 -0.330678 5.080968
-0.637464 0.553424 4.753211
0.117202 -0.858670 9.374846
-0.845844 0.127325 7.219646
-0.905350 -0.800661 4.593411
-0.071540 -0.646298 3.325824
-0.790033 -0.875109 0.931275
-0.386667 0.803366 8.209829
-0.322333 -0.903591 1.693237
0.538854 0.032833 5.150158
-0.334640 -0.550045 6.372792
-0.011400 -0.232823 7.440781
0.545172 -0.012688 0.833436
-0.590203 -0.099880 0.106861
0.609795 0.496174 7.060085
0.663590 0.823767 4.543913
0.977694 -0.399456 1.811354
-0.111905 -0.950919 9.820274
-0.258701 0.787891 7.913542
0.404011 0.957568 5.785131
-0.883698 -0.133298 7.021071
-0.920497 -0.088422 1.550235
-0.330018 -0.711688 9.622252
0.459030 -0.048953 9.963671
-0.767091 -0.393302 6.484455
0.271094 0.988760 6.683126
-0.460989 -0.630304 7.044585
0.303349 -0.242827 6.657862
-0.086048 0.233004 4.385408
-0.769697 -0.309753 5.406762
-0.505434 -0.051153 2.827262
-0.560572 0.946967 4.468479
-0.670831 0.016143 4.361033
-0.063309 0.820641 2.881404
0.909331 -0.913834 7.867048
0.316178 -0.760363 4.096720
0.672004 0.889023 5.517153
0.962160 -0.742538 1.560905
0.081245 0.473102 4.749669
-0.523860 -0.107993 7.614553
0.855622 -0.186503 4.445256
0.397968 0.318441 5.577414
0.917883 0.455202 7.017066
0.302064 0.863939 3.889756
0.550290 -0.486229 3.532826
0.781272 0.396161 0.857420
0.518499 -0.315428 5.822724
0.125292 0.435219 7.069585
-0.056158 -0.715768 5.812525
0.646755 -0.084915 2.835253
0.543972 -0.632741 2.623369
-0.267138 -0.327108 1.594876
-0.003336 0.431259 0.469908
0.269982 -0.533300 4.268780
-0.943260 0.369768 1.605203
-0.504863 -0.008120 6.907977
-0.499571 -0.815927 9.617330
0.766463 -0.226611 0.734816
-0.337024 0.738412 8.929558
0.090287 0.978582 6.577161
0.663173 -0.262158 8.602790
-0.480612 -0.890251 1.549589
-0.752486 -0.739624 9.064820
0.896720 0.576297 9.578718
0.409366 0.311574 9.067141
-0.645892 -0.429976 7.854996
0.639423 -0.217403 0.903043
0.574253 0.622300 2.207311
0.675082 -0.173780 9.131352
-0.447575 0.511546 2.294243
-0.102841 -0.409589 3.477140
0.387347 0.449624 0.504769
-0.218665 -0.067205 6.280930
-0.860056 0.090709 5.633009
-0.727100 0.197466 9.617717
0.194227 -0.098851 8.923446
-0.249664 -0.067729 5.059439
-0.989240 -0.468583 6.093373
0.533709 0.971529 4.131968
-0.166593 0.811630 1.324591
-0.372461 0.054766 8.677906
0.427038 -0.930741 5.495386
-0.089782 -0.663144 4.253921
0.389662 0.707870 0.684654
-0.973604 0.861624 6.653834
-0.981160 -0.677416 3.996649
0.119804 0.469037 2.536959
0.964424 0.246047 8.767533
-0.455286 -0.393230 1.836318
0.365787 -0.127817 5.150199
-0.655485 0.354539 7.957560
-0.376903 -0.797408 8.490748
-0.843850 -0.621915 8.187054
0.761586 -0.933370 8.966263
-0.379125 0.804403 1.423574
-0.539067 0.147792 9.404585
0.461208 0.046855 0.108029
-0.601120 0.412481 2.559040
-0.519449 0.976700 0.840387
-0.792767 -0.655525 9.455331
0.925744 -0.733788 4.239357
-0.504725 -0.410418 3.152694
0.991327 0.807888 1.670875
-0.647701 -0.177079 1.558179
-0.958696 0.586994 6.139317
0.791387 -0.594144 0.470842
0.160035 -0.012789 5.943304
-0.297180 -0.745059 7.746494
0.026679 -0.174203 6.010149
-0.478546 -0.475436 8.265788
0.269518 0.098863 2.652587
0.232937 0.560812 0.771715
-0.839615 0.876741 7.209906
0.821376 -0.432314 8.281304
-0.078949 0.486263 5.016765
-0.609692 0.771185 8.206169
-0.385232 -0.750296 4.579192
0.732444 0.171864 1.985276
-0.233630 0.223693 4.743940
0.123922 -0.455230 2.159506
0.895379 -0.954971 4.720316
0.303433 -0.486594 1.475516
0.351433 0.169469 1.855621
-0.502862 -0.607115 8.829128
0.336590 -0.425310 1.158582
-0.212395 0.415845 2.242743
0.822085 -0.203369 9.955201
-0.740922 -0.869149 5.760185
-0.428719 -0.201668 5.858192
-0.867999 0.999538 8.449709
-0.238192 -0.477897 5.243196
-0.703255 -0.469487 2.217820
0.690288 -0.660227 4.224666
0.850086 -0.456725 7.550013
0.338851 0.149507 8.724484
-0.793331 0.929204 2.732038
-0.316738 0.215391 2.619753
0.928984 -0.180305 3.276082
-0.727398 -0.220733 5.962107
0.112979 -0.951548 2.785091
-0.294141 -0.994915 8.931369
0.998325 0.594387 9.780076
-0.429222 -0.019679 6.791199
-0.904455 -0.933581 9.702997
0.404366 -0.427946 2.878505
-0.346521 -0.286636 8.151704
0.315163 0.566578 6.784446
-0.790696 -0.131227 2.631918
0.046126 0.578600 3.184073
-0.249537 0.267468 4.886257
0.073534 -0.933728 7.916433
0.706945 0.937377 8.722223
0.945495 -0.637134 6.339470
0.506264 -0.448761 7.215764
0.533717 0.618588 2.638495
0.057872 -0.620320 7.410715
-0.805200 -0.197824 6.049798
0.334119 0.729982 2.229209
-0.704440 0.274545 9.501870
-0.508678 -0.395839 5.128596
0.415165 0.288099 7.944620
0.313985 0.625249 5.256128
-0.371348 -0.192221 9.329367
0.544088 0.143349 1.412794
0.878632 0.975855 5.461546
0.090519 0.929126 0.251550
0.355373 0.018075 1.973936
-0.456441 -0.807717 2.810265
0.941614 0.401364 4.726101
-0.452590 -0.462758 8.201727
0.774818 0.338950 4.666545
0.855738 -0.296489 5.611872
0.439257 0.437517 9.240544
0.623175 -0.265355 7.565325
-0.084286 0.882391 0.502034
0.839094 -0.726654 1.764626
0.485292 -0.863190 0.382175
-0.346512 0.562398 0.690563
-0.930110 -0.197348 3.388548
0.081566 -0.068849 7.278585
0.681301 0.867635 2.443529
0.721336 0.179841 3.922863
0.670237 0.320341 3.938747
-0.570507 -0.961068 5.903066
-0.147703 0.341029 8.929190
0.227652 -0.223294 9.832273
0.335113 -0.079571 6.046110
-0.330833 0.616100 5.050705
0.385285 0.047587 6.818757
0.181794 0.973742 6.680312
0.133551 0.593622 5.239459
0.326050 0.457183 7.369563
0.206736 0.177373 4.912714
-0.666251 -0.175207 9.964584
0.748833 -0.894255 0.489973
-0.518860 -0.963008 4.432156
0.488978 -0.906482 3.970243
-0.647087 0.917673 7.703040
0.321933 -0.353576 1.908254
0.791368 0.401219 4.340755
-0.980579 0.188629 6.979445
0.959355 0.143335 6.031919
-0.940648 0.158483 5.451218
-0.977265 -0.395408 4.349551
0.715120 0.773065 7.520088
0.417408 0.838412 6.464251
-0.788379 0.289052 8.747110
0.874830 0.727898 7.329989
0.343864 -0.880038 1.404076
-0.777913 -0.799217 6.195380
0.721107 0.118132 0.445384
-0.038190 0.693014 3.873709
-0.443733 -0.369141 4.119377
0.650082 0.096112 8.548829
0.476893 -0.980079 1.803717
0.246088 0.973260 6.435415
0.797026 0.533962 1.923870
0.722560 -0.277162 9.486702
-0.546417 0.966026 5.294969
0.757372 -0.815144 7.082138
-0.251920 -0.071648 6.465454
-0.136451 -0.882297 3.036385
0.944665 -0.330070 9.011978
0.519749 -0.561272 6.272487
-0.357028 -0.366898 5.103180
0.295852 0.894819 5.283607
0.078649 -0.145626 8.906905
-0.766794 -0.350278 0.591195
0.775505 0.281545 3.890621
0.643763 0.366738 8.416275
0.555421 0.967538 0.375152
0.118307 0.092116 6.391812
-0.558325 0.505127 4.032642
0.767792 -0.235670 2.045835
-0.294069 -0.657935 6.114049
-0.959764 -0.140329 8.310610
0.963548 -0.162448 4.673396
0.722314 -0.158773 1.467374
0.245361 0.390842 3.061512
-0.975186 -0.188115 9.813533
-0.544568 0.908325 1.110919
-0.095900 0.965499 1.607150
0.256170 0.046723 9.901778
0.416309 0.116888 8.821014
0.576545 -0.184747 7.071287
0.111322 -0.288813 1.509833
0.312367 0.970653 2.405491
0.622485 -0.918686 1.801822
0.439683 -0.179828 6.309549
0.909625 -0.697319 3.988689
0.749292 0.452561 0.477791
-0.661277 -0.611109 2.912923
0.894838 0.769291 8.606532
-0.591648 -0.251044 7.960423
0.982528 0.834297 6.430118
0.402659 0.973125 0.855435
0.255063 0.542343 8.827908
-0.351354 0.246316 5.345178
-0.733785 -0.700197 4.945760
-0.747654 0.866121 9.340636
0.733150 0.553733 0.088440
-0.135116 -0.423908 5.558972
0.119704 -0.062996 7.912444
0.863672 -0.864670 0.636905
-0.489291 0.318001 3.571721
0.527875 -0.749471 9.774852
-0.059070 0.303063 2.117861
-0.574491 0.343107 5.311794
0.705943 -0.350742 7.460690
0.359898 0.897325 3.903739
-0.810157 0.557925 4.078732
0.083514 -0.006533 0.632684
0.703528 0.837138 1.900933
-0.866130 0.711687 8.806092
-0.167450 0.384436 8.183176
0.610429 -0.694069 3.046385
0.716715 -0.005852 3.817113
0.550726 0.728846 4.404104
-0.388581 0.217783 3.459436
0.013859 0.091023 6.539117
0.482556 0.910448 0.128284
-0.694824 -0.966904 8.801681
0.189996 -0.975907 3.006491
0.440747 0.785641 8.723735
0.699984 -0.922926 4.543858
-0.776657 -0.334913 7.763310
-0.340651 0.848051 8.257798
0.083308 0.382305 3.012888
0.402114 0.296318 6.403248
0.460073 0.313997 6.074140
-0.493482 -0.364714 4.760141
-0.972247 0.061067 4.695687
0.387634 0.259946 3.052033
0.818253 -0.388569 3.101905
0.595034 0.590728 5.481516
0.244932 -0.356503 0.322706
0.955141 -0.857112 9.336644
-0.133766 -0.597091 6.499793
0.050100 -0.183179 4.434435
-0.975426 0.816112 0.618060
0.891903 -0.168477 6.300125
0.166693 -0.820392 0.177427
-0.218400 -0.607086 6.798672
-0.910871 0.088935 0.725244
-0.275162 -0.644688 6.561022
-0.992804 -0.872091 4.058878
-0.351330 0.429657 6.626285
0.902910 0.568695 1.384973
-0.691465 0.701266 1.173829
0.090822 0.687868 2.474240
-0.626765 -0.241481 4.115113
0.566758 0.468940 2.530310
0.124796 0.167078 0.820154
-0.595528 -0.953271 3.250281
0.732483 -0.196804 7.057609
0.568048 -0.894242 5.830861
0.902603 -0.833288 9.633246
-0.998744 -0.887995 4.359217
-0.085766 0.921893 3.328024
0.999683 0.688402 6.936795
0.622376 -0.121791 4.119588
0.662572 -0.504005 6.183093
0.242265 -0.855098 9.462873
0.425799 -0.137607 4.991892
0.610653 0.200706 4.981750
-0.815439 0.594207 7.751665
0.385161 -0.896878 7.560767
0.630816 -0.164260 5.162314
-0.918268 0.953715 0.647203
-0.405894 -0.758559 9.807870
-0.351977 -0.199401 3.773204
0.709165 -0.449889 3.167064
0.560703 -0.731921 9.815468
0.312843 0.677891 8.721352
0.609446 0.394230 3.302166
-0.093141 -0.176887 3.083091
0.749761 -0.261865 7.209541
-0.531568 0.655498 3.343159
0.409154 -0.818432 2.514320
-0.516498 -0.706333 9.796708
-0.920276 0.813100 5.657102
-0.431698 0.634413 7.624976
-0.014186 0.549756 7.130550
0.686872 0.247952 7.555260
0.017713 -0.415100 9.033900
-0.641699 0.869573 5.007683
0.985532 -0.016262 7.533782
-0.459854 -0.438761 7.968138
0.970589 -0.268851 9.463846
0.872669 -0.966318 7.130967
0.084883 -0.489682 8.926158
-0.816074 -0.624088 0.950381
0.390830 -0.728887 1.260966
0.691435 -0.935720 1.583462
-0.109398 -0.546249 1.448131
-0.521919 -0.792963 0.875188
0.605648 -0.909719 1.225738
0.090156 -0.725355 9.959103
-0.604740 -0.595193 2.721850
0.899077 -0.168075 4.780481
0.896196 0.167391 8.216154
-0.265901 -0.355468 1.183047
-0.871994 -0.717481 3.173650
0.261577 0.880648 1.592860
-0.365547 0.029707 0.625561
-0.867289 0.483761 9.607534
0.783613 0.388870 8.583578
0.996233 -0.430206 8.792980
-0.299189 0.119724 8.686801
0.489493 0.204328 1.545668
-0.868458 -0.296418 7.849969
-0.260589 0.341533 7.278712
-0.782496 0.581353 9.254154
-0.889300 -0.271579 2.193223
0.177582 -0.970169 4.140444
0.604062 -0.301328 2.949285
-0.094059 -0.766369 2.579178
0.048358 -0.688784 6.523817
-0.458540 -0.268101 1.639433
0.472775 -0.584758 4.648071
-0.277853 0.869778 6.466404
-0.865002 0.305606 1.303031
-0.668985 0.036728 2.569801
-0.743063 -0.980551 9.673661
-0.128244 -0.792765 7.954293
-0.869575 0.576956 6.769547
0.612969 -0.220512 8.559692
0.816010 -0.909014 0.139685
-0.503212 0.651118 0.060744
-0.028980 -0.394708 1.539666
0.038126 -0.227409 4.952571
0.970002 0.948738 5.699737
-0.868761 -0.968975 1.136885
0.335765 0.442649 0.722856
-0.308470 0.897768 8.283341
0.003612 -0.872281 4.644685
-0.565931 0.732154 9.924944
-0.679515 -0.167517 2.293467
-0.512869 0.755993 6.472011
-0.857476 -0.383451 8.043882
-0.443819 0.965325 8.726382
0.380702 0.294099 3.063190
0.302964 0.254181 1.932804
0.108992 0.611807 2.260946
-0.999225 -0.126828 6.667428
-0.748436 -0.482661 5.223298
0.685739 -0.474140 5.989914
-0.456523 -0.338792 0.205286
0.824398 0.234705 3.909732
0.749092 0.676779 3.101485
-0.690146 -0.000844 8.637813
0.796304 -0.193104 7.762587
0.255670 0.587695 4.295719
0.260574 -0.420664 6.305296
0.705360 0.378071 0.476794
-0.189888 -0.788390 6.372515
0.470527 -0.773523 0.972050
0.335529 0.288111 7.140188
0.543029 -0.834499 5.738384
0.320378 -0.689898 3.004932
-0.839890 0.248738 3.708400
-0.414578 -0.123593 0.900916
0.879842 0.122593 3.227885
-0.553150 0.953886 9.668429
-0.055479 0.263922 4.861849
-0.286144 0.181702 4.742409
-0.827403 -0.239724 6.292288
-0.637623 0.261755 4.844438
-0.426666 -0.974001 3.555091
-0.073363 0.114640 1.395216
0.749048 -0.862205 6.303152
0.031233 -0.559656 7.489224
0.303810 0.126242 9.231027
-0.148090 0.335901 0.030139
0.740125 -0.230407 0.666604
0.325243 -0.162040 8.994057
-0.818739 -0.003955 6.311555
-0.044998 0.518149 9.579103
0.654468 -0.964744 4.308446
0.467311 -0.105864 4.166872
0.810622 -0.971453 3.442646
-0.544664 -0.361716 1.428189
0.954344 0.039697 3.786329
-0.429845 -0.840161 0.146485
-0.899640 -0.029573 5.093133
-0.008655 0.849148 8.472102
-0.779323 0.370685 3.211968
0.362622 0.564505 0.946402
0.801113 0.160828 9.737613
0.842687 0.792718 1.289776
0.214074 -0.706261 5.286975
0.070530 -0.100428 8.091857
0.987983 0.194066 2.523452
0.158851 0.746951 8.414895
0.854917 -0.383980 5.570251
0.833190 -0.997744 3.319357
-0.420972 0.948828 8.656892
-0.972498 -0.948045 6.220002
-0.121663 -0.695267 6.153844
0.722740 -0.155907 5.040097
0.672268 -0.007260 2.747375
0.207338 0.668932 3.048604
-0.686683 -0.104364 0.880791
-0.784825 0.094858 2.437237
0.909364 -0.600000 2.778251
-0.157205 0.138317 0.587015
0.296322 -0.303233 1.103147
0.811729 -0.802535 2.702530
0.739786 0.892926 6.772525
0.133806 -0.836631 1.842350
-0.024190 0.355758 5.218496
0.470518 0.816386 5.079033
-0.300709 -0.641591 8.340381
0.250781 -0.525765 6.091638
-0.953695 -0.146586 9.169991
0.648625 -0.410980 6.281014
0.996065 0.518066 0.255156
0.909413 -0.323693 3.814921
-0.280210 0.971671 6.990480
0.062203 0.717574 4.751219
-0.527566 0.790688 4.193979
-0.394025 -0.872671 6.715456
-0.085308 -0.647383 2.857329
0.494162 -0.661263 9.089780
-0.964235 0.343929 4.131436
-0.212452 -0.976177 6.312178
0.112994 0.612852 9.823333
-0.569634 0.094092 7.854802
-0.843043 0.132626 5.316232
0.079148 0.074673 8.593876
0.275620 0.070692 5.604377
0.282005 -0.604228 4.416534
-0.286831 -0.433641 8.734529
-0.525276 -0.024765 0.271554
-0.559227 0.355689 4.074661
-0.918952 -0.456092 3.429925
-0.630633 0.612270 7.140863
0.637212 0.621186 0.125862
-0.993897 -0.452241 6.608525
-0.912223 0.120129 3.463612
-0.745962 -0.302154 0.978934
-0.159519 -0.618629 9.803308
-0.332524 0.612000 2.122287
-0.644328 0.982962 3.491299
-0.778101 0.131438 2.070466
0.877725 0.827893 6.619912
0.822500 0.284338 7.825163
0.543797 0.131447 8.606408
-0.495956 -0.039710 3.109982
-0.352604 -0.528570 5.245534
0.331690 -0.831489 6.632576
-0.416602 -0.115328 6.295210
0.061246 0.122620 7.160272
0.302568 0.018899 7.697273
0.038393 0.391141 0.974734
-0.173430 -0.615802 1.683110
-0.304212 -0.291594 7.343210
0.555500 -0.168865 4.766755
0.477998 -0.626953 4.270338
0.392456 0.812928 4.554401
-0.250646 0.363023 3.720260
0.551473 -0.816275 5.910675
0.915407 0.425596 3.233255
0.377959 0.095575 6.368154
-0.184201 0.047881 2.026371
0.592963 0.979572 7.576889
0.218604 0.236402 7.816000
0.755354 0.793456 5.785208
0.426365 0.827098 3.693235
0.539840 -0.797163 0.143966
0.334873 -0.983275 1.215325
-0.815959 -0.129466 0.796870
-0.029766 0.538570 0.102050
-0.887020 0.648392 7.222198
-0.104902 0.574988 9.560668
0.432854 -0.105424 0.111683
-0.157489 0.499928 1.126906
-0.996739 0.437553 8.606759
-0.261430 -0.372361 6.885022
-0.864482 -0.662559 4.047104
0.561193 0.242837 9.927965
0.567503 0.354173 5.736213
0.612757 0.135941 6.695990
-0.939346 -0.573641 6.531764
-0.935461 -0.446653 2.227016
0.806899 0.416973 4.881244
-0.752632 0.925245 2.164113
0.340180 0.889671 5.094645
0.590909 0.039316 0.307812
-0.104273 0.773119 3.819592
0.092944 -0.941098 3.722101
-0.545239 0.722304 2.916306
0.847200 -0.047698 0.792289
-0.396398 0.563055 7.709671
-0.564378 -0.988834 4.204549
0.050807 0.737122 8.139732
-0.618973 0.189959 8.357272
0.373383 -0.519539 2.135974
0.030231 -0.305034 4.213301
-0.704391 -0.598668 7.209740
-0.865507 -0.151188 4.994962
-0.726093 -0.339988 8.550682
-0.726751 0.069006 5.715690
-0.374299 0.629569 6.295810
0.666541 0.964551 7.870235
-0.885412 -0.497085 1.222221
-0.743822 -0.786983 5.842482
-0.394202 -0.208666 0.854299
0.106666 -0.712891 2.605511
0.525766 0.668480 2.125717
0.842383 0.002250 5.670761
-0.175824 0.239925 8.439024
-0.788330 -0.698775 1.328096
-0.572969 0.499218 7.683965
-0.425505 0.947164 1.430661
0.572195 -0.035229 1.896717
0.373287 0.924915 9.169402
-0.581989 -0.930568 0.097292
0.677491 -0.928555 1.971440
0.718312 0.920026 2.155561
0.764878 0.400531 2.818806
-0.449992 -0.622621 3.634117
-0.732540 -0.272250 1.031780
-0.792085 0.015506 4.684543
-0.199824 0.405275 3.993504
-0.141350 0.684053 6.249338
0.736420 -0.834687 8.675176
-0.464488 0.313148 2.977203
0.253784 -0.046577 5.464878
0.576425 0.195245 3.713774
-0.461694 0.017063 0.402503
-0.465721 -0.098614 8.210754
0.338311 -0.588974 6.342164
0.452273 -0.055328 0.021723
0.919525 -0.620690 2.495719
0.699881 -0.910777 3.089894
0.644103 -0.252351 8.115315
0.384628 -0.950089 7.607132
-0.763027 0.125090 3.961439
0.618482 -0.855215 1.573422
0.870643 -0.124893 3.860322
-0.218564 0.960286 8.101463
-0.372676 -0.980237 4.523914
0.044963 -0.266291 1.158702
0.912911 0.346526 0.385475
-0.898335 -0.682166 3.333353
0.417761 0.121467 1.483628
0.629337 -0.483619 7.450412
0.577498 -0.554463 2.787568
0.133549 0.789967 8.774530
0.841126 -0.593439 6.173493
-0.730952 -0.246897 3.936638
-0.509699 -0.660805 6.100576
-0.386087 -0.432225 2.951740
-0.982645 -0.413787 1.413239
-0.258661 -0.346454 9.641776
-0.678680 0.282134 5.631614
0.449252 0.485185 0.073281
-0.170094 0.021339 3.103142
0.408919 0.220952 1.595345
-0.412693 0.626537 2.581833
-0.736165 0.999121 0.557155
-0.736022 -0.086988 2.450856
-0.593472 0.872869 6.830161
-0.769569 -0.019260 8.206095
-0.558906 0.564000 3.473920
0.158069 0.146446 5.224657
-0.487328 0.768078 0.417906
-0.314107 -0.102594 0.908008
-0.894532 0.391630 5.519241
0.784418 -0.067370 8.405769
-0.723678 0.714055 0.879880
-0.302668 0.988737 4.185467
-0.241041 -0.513370 9.704247
0.544253 -0.051322 7.387925
-0.032914 -0.837487 1.976032
-0.234087 -0.718009 2.851743
0.391749 0.858300 9.479162
0.194030 0.087228 2.209877
-0.843731 -0.209768 4.409074
-0.374599 0.342965 3.556101
0.957216 0.120323 4.900388
-0.033330 -0.422565 2.365802
-0.151614 -0.546771 6.683504
-0.700160 0.180480 2.345910
0.678140 -0.623469 6.021014
-0.733384 -0.721656 3.577693
-0.789833 -0.363225 2.514761
-0.121999 0.722682 6.950026
-0.126706 -0.926361 9.652398
0.962938 0.666533 8.693754
-0.744933 0.241948 0.868354
-0.032346 -0.919254 4.544138
-0.597509 0.204078 6.947799
0.403528 -0.147961 5.626158
-0.216626 0.682255 7.263568
0.296936 0.814397 9.751201
-0.323178 -0.427014 3.422718
0.129092 0.568340 7.708732
-0.061726 -0.380394 0.940713
-0.251270 -0.408729 8.697482
0.075050 -0.614723 7.784322
-0.232403 0.356978 5.209675
0.612038 -0.476629 8.210335
-0.009525 -0.070283 6.666234
0.806255 0.624256 5.522262
-0.554392 0.583826 9.460005
-0.775752 0.710885 1.302652
-0.238065 -0.677871 9.929677
-0.632681 0.173786 1.544329
-0.213761 0.829680 4.801760
-0.585178 -0.915900 2.314110
0.736433 0.589054 2.719136
0.135809 -0.507526 6.318320
-0.004821 0.339307 0.347101
0.575490 0.434810 9.407468
-0.739266 0.851170 2.796221
0.714029 0.017599 2.725326
-0.033392 0.696462 8.635637
-0.727134 -0.909364 7.648362
0.638823 -0.158914 6.717219
-0.078450 -0.120962 1.463585
0.209201 0.076557 7.696167
0.787218 -0.037319 3.607663
0.781383 0.935923 9.938886
0.785638 -0.842921 6.712495
-0.166165 -0.469967 8.358931
0.499212 0.937258 7.337853
-0.533458 -0.109395 5.942383
0.662354 0.142315 7.163191
-0.316555 -0.837949 5.974838
-0.072175 -0.431898 0.511986
0.782783 -0.920697 3.455231
0.611480 -0.724990 3.164175
0.905022 0.266630 7.139732
-0.273054 0.527245 5.761732
-0.697829 0.740170 6.104888
0.820821 -0.497071 8.469816
-0.013691 -0.334272 5.253071
0.778802 0.138797 2.182772
0.464147 -0.832628 0.124397
0.749606 0.613437 1.594975
0.309446 -0.033416 0.305791
0.624744 0.931015 2.370649
-0.759328 -0.765368 6.349972
0.936589 -0.733419 1.514190
-0.638042 -0.302845 0.819232
-0.950994 -0.586476 9.708546
0.061615 0.393180 9.969050
0.423825 0.893621 6.370235
0.432837 -0.820191 1.085664
-0.321534 -0.515527 8.215206
0.507664 -0.524204 5.392137
0.685120 0.018146 1.820736
0.220023 -0.095949 5.756922
-0.228016 0.453732 0.393821
0.227149 0.465262 9.724711
0.724461 0.145509 8.259655
0.800944 0.182045 2.607769
-0.936967 0.684633 4.189119
-0.755203 -0.206127 3.952836
-0.990972 -0.975314 8.614942
-0.015116 -0.573939 3.546344
-0.127218 -0.929276 0.479802
0.091603 -0.213008 2.146888
0.367293 -0.284329 2.155697
-0.268433 -0.802740 9.492410
-0.582845 0.510051 9.240548
-0.210359 0.106121 3.005933
-0.981978 -0.548597 0.027671
0.658893 0.518252 5.169976
-0.232547 0.335862 7.972399
0.245577 -0.616810 2.686050
-0.350549 0.965777 4.390440
0.229625 -0.645148 1.727892
0.080871 0.543401 3.273953
-0.582881 0.936573 7.588530
0.250648 0.451004 4.282813
-0.780755 0.331554 4.472708
-0.037828 0.806643 7.895516
0.439756 -0.461736 7.629727
0.098125 -0.445688 1.871528
0.492542 0.282321 4.152722
-0.453675 0.764276 8.488578
-0.902363 0.234748 4.567377
-0.888059 0.954098 6.617635
-0.462549 -0.554195 3.059621
-0.184666 0.651759 0.595586
0.075010 0.854527 1.648990
0.515323 -0.145995 4.017209
0.679219 0.923965 3.534670
0.387362 -0.595705 8.956408
-0.073582 0.905668 5.456227
-0.471026 0.805616 6.271554
-0.144395 -0.867708 6.886827
-0.453208 0.042663 5.316259
0.248925 0.057678 7.696457
0.636414 -0.886053 7.831005
0.036377 -0.920938 3.513860
-0.908321 -0.989806 0.847852
0.879497 0.049018 9.863542
-0.411432 -0.072369 6.426207
0.829021 0.880920 7.089161
0.626137 -0.315387 7.566960
-0.173750 0.316455 6.129634
-0.886592 -0.984873 4.709015
0.895408 0.327077 9.846697
0.318107 0.826920 7.276574
-0.500692 -0.290464 8.458488
0.067072 -0.371886 4.396754
0.270741 0.252060 9.047775
-0.546681 -0.342896 7.321511
-0.812919 -0.195163 7.461280
-0.465069 -0.453767 0.869312
-0.904795 -0.310222 6.174567
-0.860027 0.358821 3.352167
-0.686830 0.844750 6.690017
-0.683187 0.166231 5.682141
-0.504097 -0.979933 1.111895
0.874858 -0.472215 5.299877
0.151640 0.904477 4.512584
-0.154990 0.820644 7.764435
0.127599 -0.768706 5.026383
-0.988577 0.816834 4.811622
0.789494 0.929058 7.194910
0.064626 -0.350856 6.685879
-0.096699 0.402014 9.918544
0.883204 0.119965 3.519527
0.460816 -0.325901 6.883566
-0.325158 -0.693328 1.672586
0.872315 -0.266160 8.045608
0.703995 0.855593 7.861556
0.909067 0.622497 7.258207
-0.807552 -0.338651 1.190508
0.910570 0.095351 9.875446
0.085766 -0.188077 9.426106
0.344430 -0.067524 3.700915
-0.575522 0.522421 5.773159
-0.719197 0.086012 8.888870
-0.841225 -0.637911 4.946440
-0.155374 -0.461929 5.991633
-0.557301 0.135588 6.032429
-0.836754 0.385639 6.492550
0.910132 0.016241 5.755004
0.466783 0.240421 4.059442
0.035709 0.578754 5.394794
0.486695 0.090784 8.714427
0.222916 0.954383 8.641033
-0.643935 -0.528863 7.725457
0.266873 0.839377 4.141076
0.362025 -0.504680 7.859726
-0.525058 0.063289 3.878563
-0.359711 -0.088186 6.640687
-0.233399 -0.254233 5.674281
0.205093 0.925469 3.000247
-0.746384 -0.455397 4.528783
0.486956 0.349738 8.303618
-0.307951 0.608137 9.127528
0.383545 -0.605986 2.052954
0.865775 0.946306 4.562148
0.739749 0.093281 4.335056
0.475162 0.828981 4.890153
-0.613346 0.327762 9.766257
0.464149 0.298854 5.187425
0.271579 -0.308828 8.300767
0.545094 0.541180 6.639371
0.737628 -0.940427 1.071909
-0.377050 0.111641 6.956568
0.288608 -0.935722 6.470592
-0.449724 -0.386256 7.584689
-0.307430 -0.807408 0.744485
0.041289 0.823182 2.413076
-0.131673 0.256521 7.692887
0.201261 0.337021 3.706160
0.517523 0.702257 9.108190
0.210040 0.466065 5.176704
0.939601 -0.751609 0.010271
0.476240 0.235077 6.988360
0.970024 0.956341 5.134640
0.486881 -0.571768 3.170944
0.015838 0.239428 0.204407
-0.177988 0.127229 1.987462
0.471321 -0.216708 1.615939
0.374249 0.909271 5.828541
0.337529 -0.287199 7.695540
0.443568 -0.812639 2.346064
0.744344 0.925086 6.977231
-0.544479 0.458440 8.998243
0.129789 -0.315100 6.215860
0.206602 -0.438977 7.756476
-0.414286 0.856053 2.042315
0.975899 -0.452900 0.749385
0.571076 0.074315 3.653878
-0.357468 -0.570090 7.090069
-0.283131 0.990429 6.860986
0.436516 0.539017 9.550792
-0.977013 0.135270 6.299784
-0.071919 0.491653 4.112845
-0.313778 0.832736 7.971314
0.708006 0.926248 1.530679
0.582590 0.572038 8.130223
-0.335806 0.698132 3.659305
0.729594 -0.204412 1.540100
0.827200 -0.216354 1.621406
0.104918 0.616593 9.835975
-0.681526 0.519250 6.232228
0.540656 0.801963 1.742646
-0.361312 -0.733981 2.685625
0.054563 0.381626 3.720798
-0.908823 0.295296 0.558995
0.000181 0.597040 1.084157
-0.239471 -0.950895 7.617543
0.372131 0.652505 7.868740
-0.918433 -0.347147 9.882346
0.249891 0.374244 0.675964
0.543912 0.233119 8.891844
-0.974444 -0.119603 3.172160
0.499927 0.492055 3.278506
-0.739592 0.922438 1.272823
0.396112 -0.353050 9.863002
-0.089447 0.496872 9.809892
0.103983 -0.370926 8.648296
-0.325305 0.691306 0.907801
-0.509067 -0.125454 8.416496
-0.857905 -0.101469 6.346140
0.729380 0.543761 1.287754
0.220858 -0.007661 2.617578
0.965598 -0.466711 6.892241
0.700904 0.991074 8.034408
0.739267 0.240451 8.480870
0.195699 0.290299 5.438302
-0.838115 0.293164 5.346199
0.826793 0.766718 6.842090
-0.764228 -0.632256 7.777225
0.034292 -0.881697 1.705858
0.713711 -0.226599 7.398377
-0.055184 0.129810 3.416866
-0.668659 -0.428581 3.837586
-0.253606 0.378414 0.777130
0.976775 -0.852168 5.884208
0.999518 0.581419 0.934201
0.421670 0.436172 9.131356
0.775985 -0.572110 6.209703
-0.911587 -0.403092 9.902819
-0.448057 0.614004 2.456522
-0.262081 0.546676 6.796006
-0.976005 0.627532 9.644300
-0.246077 -0.355514 2.985783
-0.813937 0.939142 0.963226
0.034819 0.430676 6.339766
-0.991161 -0.869598 3.660992
-0.459100 -0.044530 2.730576
0.732567 0.329094 9.935877
-0.573884 -0.662700 7.541093
-0.870313 0.803538 4.853946
-0.500538 0.508217 0.500034
0.655117 -0.837136 1.916157
0.174375 0.826396 2.987784
0.172149 -0.191261 4.871966
-0.998852 -0.095061 4.972498
-0.055698 0.566216 0.247334
-0.468764 0.287995 9.433563
-0.327582 -0.124943 5.428072
0.197373 -0.480751 0.197272
0.748680 0.033791 7.013352
-0.636686 0.158359 0.713515
0.536444 0.261865 7.211704
-0.902196 0.210126 7.014925
-0.346542 0.234607 9.849232
-0.562175 -0.048525 3.420374
0.831168 0.123776 1.443273
-0.644004 -0.422724 0.918693
0.157264 -0.683250 0.717261
-0.670434 0.213871 8.103332
-0.053033 -0.906003 7.185481
-0.173200 -0.869586 9.759152
-0.917286 -0.505368 3.091860
0.651735 -0.611346 8.031025
0.560225 -0.251774 0.930141
-0.444283 -0.257422 9.038799
0.227990 -0.766289 0.518303
-0.274661 -0.506994 7.878835
0.538454 -0.990862 3.073555
0.384969 -0.298072 1.811930
-0.819066 0.592870 7.045145
0.688376 -0.467680 8.958780
-0.641148 0.286696 7.641260
-0.651781 -0.803490 3.130999
0.467494 -0.975431 3.535707
-0.633498 -0.003207 1.893046
-0.755206 -0.077032 8.240616
-0.328834 -0.616962 1.070936
0.677425 -0.426830 9.032139
-0.646382 -0.938657 6.011342
-0.321854 0.595600 5.888550
-0.427492 -0.397435 8.378215
-0.287878 -0.561087 6.675333
0.428544 0.609315 3.042393
-0.189069 -0.921453 3.495151
0.519153 -0.430948 1.730542
0.280806 -0.474495 4.640632
-0.277802 -0.474055 1.101548
-0.135518 -0.977008 6.530365
0.407245 0.869343 1.692288
0.069511 0.728290 8.639318
0.736680 -0.171014 7.004626
0.866367 -0.109130 8.915113
0.435415 0.048308 0.870310
0.978414 -0.043368 7.985093
0.193074 0.558267 8.808047
-0.920338 -0.023160 0.445698
0.009704 -0.622351 9.990760
-0.539981 -0.766056 3.006443
-0.332574 0.836543 2.117212
-0.019860 -0.903235 4.149052
-0.409898 0.795121 0.086354
-0.380757 0.380958 8.859063
-0.195967 -0.190591 2.684909
-0.427085 -0.625643 5.215915
-0.660998 -0.379036 6.235595
0.531121 0.059747 7.910918
-0.209576 0.313702 2.502061
0.663515 0.382945 7.171464
0.765434 -0.105413 1.176609
0.501927 -0.252052 7.042352
-0.206654 0.536635 9.192955
0.442644 0.850827 0.850263
-0.689559 0.828930 1.167028
0.322232 0.103242 5.572275
-0.187936 -0.841959 0.464004
0.311289 -0.853420 1.873905
0.509581 -0.194489 1.901921
0.125373 0.465707 4.812475
0.284957 -0.005312 2.484870
-0.572944 0.254725 4.755229
0.185399 0.686638 5.211758
-0.079051 -0.919329 7.306444
-0.143894 0.847633 9.459922
-0.179368 -0.338205 5.037472
-0.378152 -0.906425 3.550053
-0.389331 0.670857 2.587034
0.399413 0.868308 6.346572
0.115600 0.537244 9.429171
-0.940096 0.609031 7.646549
-0.902950 0.742617 2.061026
0.140238 0.044727 8.933041
0.692567 0.360926 7.355133
-0.912044 -0.427097 1.279449
0.014414 -0.500599 7.128024
0.702271 0.217885 2.893555
-0.991104 0.469216 4.913967
-0.448412 -0.205719 3.002313
0.839840 -0.199418 0.840592
-0.837061 0.908467 7.685836
0.213993 0.036921 8.286838
0.014763 0.972569 2.319790
-0.696641 0.725685 2.396381
-0.915026 0.279315 4.299577
0.005174 -0.981729 8.114693
0.470260 -0.408150 0.772681
-0.645514 -0.164712 8.087114
0.382640 0.305630 9.227230
0.092767 -0.208954 5.615042
-0.284307 0.655648 0.603915
0.328861 0.325811 2.695528
-0.616046 -0.305680 1.113865
-0.086137 0.568868 2.592836
0.098610 -0.393819 8.117820
-0.082609 -0.874427 0.556678
-0.204997 -0.654887 2.838236
0.481827 -0.994519 5.169508
0.312202 0.664701 8.740410
0.278924 0.254217 2.499822
0.783601 0.141139 7.783272
0.987001 0.324097 5.835691
0.134409 0.307197 6.763694
-0.303464 0.131000 8.617686
0.557751 0.684820 0.264157
-0.715802 -0.118106 5.297335
0.025818 0.609619 7.472142
0.049017 0.573267 8.846031
0.966936 -0.600990 1.326942
0.982014 -0.092473 3.414516
0.598428 0.669864 0.785558
-0.053969 0.661710 8.349341
0.094452 -0.951987 8.573663
-0.360517 -0.553900 4.835853
0.659691 -0.152251 0.207953
0.493092 -0.905691 1.021981
0.542851 -0.478751 6.243581
-0.722647 -0.483400 9.826192
-0.202732 -0.570863 8.388641
0.074703 -0.206682 7.979222
-0.750684 0.626022 4.179699
-0.262754 -0.511773 9.852123
-0.825135 0.164135 8.249729
0.917682 0.115156 3.356528
0.502527 0.635848 7.484910
0.241496 -0.212001 4.325229
-0.590287 -0.552863 6.604557
-0.331745 0.783041 9.700539
-0.711030 0.665894 2.464516
0.072239 0.243007 7.950022
0.641032 -0.813521 5.903743
-0.961927 -0.967764 9.499709
-0.793383 -0.634751 1.344633
-0.541300 -0.606723 7.197095
0.428133 -0.727505 0.371532
0.787960 -0.475637 2.465535
0.506025 -0.324223 3.208545
0.049895 0.508877 4.322558
-0.789775 0.419044 9.653000
0.509829 -0.791241 0.676014
-0.788721 0.954214 1.689829
-0.304620 0.504279 2.030472
-0.384017 -0.673133 4.239967
-0.281553 -0.751007 0.606999
-0.340942 -0.824906 9.654195
0.538359 0.463577 5.598517
-0.656553 -0.527427 8.132869
0.691692 -0.854064 7.724984
0.716520 -0.156345 6.608251
-0.018148 0.417397 9.044094
-0.787703 -0.390887 9.023837
0.150814 -0.034709 1.277718
0.641863 -0.614650 9.019283
-0.421053 -0.141703 5.238910
0.675495 -0.282116 2.680697
0.353838 -0.132163 6.085005
0.974493 -0.068577 2.809036
0.649423 -0.815402 4.790079
-0.596999 -0.813263 8.164378
-0.101992 -0.478779 0.321980
-0.792983 -0.768483 1.830890
-0.860659 -0.494431 9.565827
0.412108 -0.950912 4.450984
0.825864 -0.298521 3.033242
0.947151 -0.573180 9.232795
-0.459067 0.784293 9.112139
-0.596457 0.716315 0.442425
0.120440 -0.399162 3.624780
-0.598280 -0.049030 9.128216
-0.408186 0.911584 1.797720
0.674453 0.048193 5.782135
0.620926 0.696867 3.207780
0.790147 0.652750 7.365654
-0.035513 0.882578 1.582625
0.128171 -0.388599 5.960532
0.541179 -0.913109 0.000084
-0.521469 -0.792093 2.525638
0.646187 0.142595 1.621652
-0.964885 0.060556 2.098307
0.595320 -0.403094 8.604263
0.551816 -0.502573 9.147966
-0.396440 0.418763 7.550316
0.455825 -0.318994 5.901065
-0.572013 0.207904 2.308565
0.152465 0.424587 2.747214
0.401174 -0.139069 3.098898
0.429398 -0.613187 7.770055
0.965870 0.721560 2.528843
-0.635989 -0.812938 9.733894
-0.038403 0.658941 7.964635
0.760209 0.673359 9.997177
0.123025 0.141999 4.591786
0.752778 0.258952 5.893282
-0.131882 -0.283966 2.804015
0.590703 0.683168 6.037446
0.740099 -0.472593 9.739003
0.692879 0.119552 0.303802
0.742730 -0.996410 2.892888
-0.560891 0.879686 2.812942
-0.122032 0.896593 9.823699
-0.650856 0.420833 1.326494
-0.638918 -0.153520 8.123602
-0.024345 -0.642778 2.745538
0.920176 -0.015074 8.606030
0.183823 0.582821 4.877509
0.707690 0.210547 2.422611
0.874368 0.054993 7.097330
-0.826849 0.698888 8.415808
-0.675872 -0.373732 4.701392
-0.418316 0.719928 7.139893
0.233554 -0.121093 1.815825
-0.876542 -0.995172 9.376122
0.573309 0.463884 0.964495
-0.872423 0.755687 2.219507
-0.683136 -0.031278 2.883598
-0.236584 -0.090504 1.527530
0.115440 0.610897 4.066803
0.763009 0.769549 4.577360
0.927460 0.948840 5.185893
0.769284 -0.308699 0.407995
-0.785911 0.189378 2.191061
0.262459 0.645837 8.077633
-0.116571 0.063704 8.106047
-0.748416 -0.076293 3.300068
0.110225 0.143864 4.611744
-0.286683 -0.286266 1.834529
-0.308424 -0.615848 8.221399
-0.811110 -0.866738 9.566837
0.957706 0.219962 2.913529
0.451920 -0.241731 7.819379
-0.439332 0.765906 3.523891
0.834950 -0.554082 0.026339
0.896174 -0.378577 5.997277
0.620750 0.941012 4.103987
0.318630 0.112582 7.584350
-0.247247 -0.306494 7.487641
-0.131307 0.721789 9.460312
-0.089977 0.486750 4.378190
0.897525 0.146286 4.825119
0.520269 0.778199 4.004053
-0.415971 -0.812077 2.969389
0.249281 -0.211012 6.378422
0.187801 0.621100 8.280368
0.624254 -0.228114 1.578107
-0.809383 0.853473 9.818393
0.402543 -0.694958 6.838074
-0.337660 -0.326725 7.801110
-0.740736 -0.148515 9.988546
0.463547 0.373924 5.040315
-0.336708 -0.609301 0.712913
0.460247 -0.980272 7.902917
-0.675126 0.953019 8.707660
0.971856 0.797514 1.623972
0.606816 -0.399556 0.241374
-0.421696 -0.033038 1.358237
0.481049 -0.022160 3.239664
-0.728400 0.738451 9.242810
0.306875 0.194120 0.024672
-0.880726 0.652862 8.037979
-0.333225 0.823988 8.548547
0.956925 0.131906 8.110523
-0.758159 -0.429035 0.822144
0.194848 -0.002584 6.791900
-0.858789 0.701739 9.539036
0.338802 0.167238 1.203628
-0.442676 0.791444 0.316818
-0.380049 0.790872 8.736590
-0.324395 -0.253281 6.449297
-0.589686 -0.103772 6.464355
0.883315 0.355828 9.644314
0.811664 -0.777871 7.697656
0.740030 -0.068886 3.974449
-0.787109 -0.701229 4.358411
-0.533110 0.695912 1.446930
0.224452 0.885569 3.040499
0.940742 -0.716902 4.454037
0.209635 0.334683 2.610854
-0.345796 0.273086 9.158728
0.634808 0.520150 0.118027
-0.729139 0.391559 5.870221
0.763484 -0.565742 7.716081
0.949354 -0.417575 7.321090
0.935305 -0.669536 6.437330
-0.704607 0.842288 4.103355
0.099215 0.043647 9.184772
0.169838 0.952322 3.289463
-0.610163 -0.101356 7.501341
0.093555 0.105446 9.266510
0.293075 0.578588 1.283836
-0.342077 0.594447 9.470810
-0.368638 -0.537701 7.760327
-0.879523 -0.423434 6.165917
0.913651 -0.804386 3.733987
0.607232 0.610929 9.042654
0.518898 0.587723 0.440429
-0.956442 -0.837482 4.318291
0.248618 -0.485135 7.566339
-0.638743 -0.100266 8.111404
0.323435 0.083558 2.022785
0.242311 0.045088 0.476047
0.703851 0.966151 8.028512
-0.489132 0.528251 4.218923
-0.945076 -0.773624 1.435237
0.828222 -0.412995 0.855683
0.817272 -0.309146 6.406396
-0.088281 -0.369704 5.828179
-0.843824 0.571891 8.539904
-0.004062 -0.278877 0.315670
0.048028 -0.015147 8.684272
0.643451 0.066908 8.872431
0.434203 -0.459153 4.462997
-0.858391 -0.354608 0.766664
0.410675 0.559995 9.467432
-0.728521 0.733366 0.720299
-0.821056 -0.925840 5.906753
-0.202786 0.210309 4.931565
-0.845273 0.266871 8.350865
0.658538 0.474618 5.026069
-0.073742 0.387694 4.691203
0.174008 0.754849 8.806501
0.153729 -0.843055 9.640101
0.956220 -0.223256 5.492701
0.831565 0.564179 4.547239
0.698256 0.693160 8.310951
-0.233462 -0.470463 8.310935
-0.709801 0.170568 3.193817
0.183734 -0.638470 5.762237
-0.119368 0.701789 1.541170
-0.548947 0.460860 6.355420
-0.804616 -0.555870 8.339890
-0.127813 0.247546 1.875151
0.301735 0.018641 3.230470
0.250780 -0.482347 4.489343
0.547843 0.786245 8.450801
-0.066891 -0.704321 7.313700
-0.356721 -0.065080 3.168704
0.077401 0.165597 2.430336
0.950012 0.647091 6.957047
-0.909819 -0.699640 4.798875
0.057332 0.218349 5.935542
-0.341471 -0.986881 6.486975
-0.789300 0.645163 5.586867
-0.130659 -0.530535 6.130720
0.282328 0.441831 8.875032
0.056331 0.203756 8.681989
-0.941647 -0.899745 1.490343
0.158235 -0.633540 5.864967
-0.535995 -0.464519 4.393020
-0.317047 0.773455 2.855201
-0.375591 -0.038393 6.311474
0.717027 0.827006 5.108835
-0.904854 -0.905100 7.749041
-0.304006 -0.986872 0.934310
-0.210367 0.896493 3.026807
0.237669 0.447834 0.257823
0.577930 0.566634 7.459598
0.455330 0.831611 9.124573
0.505244 0.969077 5.873763
-0.615226 -0.804576 6.169792
0.823475 -0.683417 0.464251
-0.171703 -0.622853 5.037813
-0.977782 0.636835 5.268722
0.336192 -0.288900 0.389745
0.208006 0.186543 7.823871
-0.748085 0.710444 2.783201
0.919735 0.366320 7.234470
0.123129 -0.869169 4.029253
-0.061472 -0.108652 9.956461
-0.203756 -0.865000 2.122051
-0.580297 -0.042313 0.582356
0.905626 -0.561395 9.799055
0.404317 -0.997384 2.438420
0.135207 0.626304 6.353312
0.262400 0.938766 3.745682
0.680841 0.928265 6.396279
0.271441 -0.401630 5.960586
-0.770819 0.657547 7.072739
0.394590 0.357554 0.184434
0.129739 0.600153 8.361942
0.932688 0.692476 4.786659
0.467438 0.960557 5.188528
-0.311994 -0.696541 4.110252
-0.729204 0.539492 9.893825
