ply
format ascii 1.0
element vertex 800
property float x
property float y
property float z
end_header
6.4767 3.0170 13.0187
1.4487 10.7176 7.3138
1.1600 10.1487 0.7499
8.6729 1.3971 1.8143
8.4904 16.5370 2.4760
4.4648 12.5487 18.9542
11.5421 7.9336 19.5251
0.9317 17.1694 5.7922
2.8851 2.3558 6.1696
16.3225 3.6145 11.6320
12.7783 7.4480 10.9549
1.2558 1.1920 4.1192
13.6080 8.5518 6.2829
11.7112 9.0637 5.9953
15.8876 13.9799 4.8819
11.4885 10.5039 17.5027
14.5889 5.7588 19.6035
2.3613 8.3625 15.1428
3.0397 9.7793 0.7841
13.3643 15.2914 11.4605
17.5096 6.2750 13.9059
11.8874 11.5979 9.1241
16.7994 18.8936 9.4820
13.2830 1.2134 14.0298
12.9426 19.8619 16.4385
5.6919 7.7158 13.3731
0.4513 9.2339 3.3610
2.3419 1.1791 15.3647
2.5868 4.9523 7.8190
17.4284 1.6116 8.9837
10.9888 17.6677 16.3856
17.2797 5.5684 8.3059
7.1754 17.6839 19.1546
3.0184 3.5244 4.6391
4.6667 9.6993 11.7825
5.2549 0.0819 8.3789
7.3851 11.3268 19.0620
13.8099 10.3098 12.3519
13.5240 1.0799 17.9907
15.5994 17.4903 15.9575
7.8476 7.9796 2.0707
12.6858 1.2450 1.3470
4.1753 3.2461 6.8011
1.0515 0.0047 3.0253
2.0293 7.2722 0.5100
17.4866 12.2814 2.9710
5.0452 6.9478 7.2833
2.4568 16.9787 19.8621
9.3198 9.6767 1.7177
2.0438 6.8527 5.2951
16.5771 3.2288 0.4619
19.0197 10.5651 2.9321
10.8634 0.5408 10.5622
19.5700 17.2665 13.9239
5.2223 7.3340 3.3408
15.4388 10.6518 15.5811
6.5933 4.4608 16.2302
19.6985 17.0526 16.1216
16.3667 14.7975 4.5348
10.3528 7.1113 0.5796
0.5587 5.5884 5.1835
13.8504 19.1303 8.9446
18.7404 19.7608 19.1000
7.2927 4.4092 4.5369
3.9341 4.0875 12.4813
18.0062 16.8087 9.5895
13.0596 15.9929 1.6956
13.2117 18.1955 15.6461
15.0028 9.5607 3.5704
15.7827 6.6503 16.0165
19.4331 7.9168 8.0277
18.9359 14.4960 3.4001
2.5408 3.0230 18.0970
16.1300 2.9235 16.5302
19.6061 13.1454 7.0082
10.9732 2.6197 0.2849
19.4178 12.9935 10.5316
18.6725 8.6762 17.4349
16.5231 4.2208 5.0367
5.8593 4.8108 11.7287
5.1873 8.3803 2.6215
18.2003 7.0757 9.1632
11.6670 18.0859 8.4126
18.3544 10.0330 10.6365
10.4701 0.3741 8.8025
3.6622 0.0786 15.9834
3.4469 9.4699 14.5039
11.1295 6.5196 10.3670
11.1088 15.6854 2.1222
11.2059 4.9699 5.5383
15.4452 10.1543 11.2346
15.1999 18.2498 8.8650
12.2506 10.1111 10.2432
13.8546 9.0469 10.6657
9.5607 18.8300 13.9844
17.5307 18.8436 5.1918
11.1903 18.8653 16.8000
2.7427 2.4324 8.8424
1.4509 4.8128 1.4624
13.3894 15.6787 17.9405
3.0889 14.3224 13.2051
2.8596 17.6567 19.3509
4.3918 19.0501 7.9651
9.7452 19.7974 16.6489
3.2293 8.6304 10.3121
6.7823 3.9149 6.3705
14.4430 0.3897 11.0810
8.8092 0.3616 6.6300
12.4785 10.2452 1.2858
19.7017 15.7673 19.4339
2.0956 5.3113 0.7918
15.5799 5.4089 2.5911
8.4451 18.2283 16.3796
5.1722 2.9874 18.3834
11.4119 14.0083 1.7892
1.1505 13.7641 8.5063
1.4483 18.7670 12.6888
16.0326 1.6749 17.1246
1.3325 17.2555 9.0755
6.7830 11.0613 18.5334
5.3572 2.5845 10.5383
4.7687 2.1890 3.2290
1.0076 4.0354 6.2398
6.1001 15.1900 5.7992
10.0018 3.5580 6.9400
0.3633 5.0090 0.3069
14.6616 11.0210 3.7891
9.4952 18.6929 2.1256
16.3784 8.6436 9.9000
16.6923 7.8617 10.1337
13.7548 19.6488 6.8541
16.6457 14.1345 12.7195
8.0940 6.9510 1.0878
2.5964 1.4145 14.8178
5.1119 3.2649 1.6897
16.8254 17.4108 13.4109
5.6387 4.8443 5.8612
9.1891 3.1507 8.9165
5.2649 19.2357 19.4525
10.9415 4.8889 19.3133
6.1910 7.1317 0.0214
7.6325 9.4929 10.0553
4.0196 10.0947 0.0990
5.2834 1.7951 7.9902
0.8333 0.4499 6.0849
4.6562 11.7117 10.5838
15.0108 13.1509 14.3199
17.5818 7.7903 6.5227
19.6946 2.9893 14.4831
12.8644 0.8758 16.7058
17.8388 12.5466 14.6770
16.2444 2.7862 10.4751
10.0874 16.6988 16.0936
16.5282 11.6812 17.8566
13.6579 13.8665 4.5988
0.6232 2.6619 7.2141
2.0983 16.7164 11.1705
12.5553 12.5245 13.6133
9.7859 0.0663 15.9540
14.9653 10.0594 10.7040
13.1860 1.3210 14.7358
5.0439 1.4890 5.3112
14.5867 4.1044 14.7966
19.5147 9.8790 7.6512
9.5802 13.6739 15.3394
12.3395 12.8553 1.5494
2.9485 5.0788 14.8643
6.0883 11.3552 0.2494
1.2132 5.3755 13.4400
13.8437 13.5142 5.8171
10.3307 9.2933 9.3268
2.3701 17.8733 3.9850
19.5625 18.7251 0.3501
9.1794 16.3980 19.3622
8.9890 5.3731 4.1967
18.9117 4.2142 11.6294
2.8348 10.4813 19.0548
2.6521 16.4043 10.1749
17.7372 14.0667 4.6277
17.9541 9.7228 0.4967
0.0718 9.8339 9.0152
6.0390 2.8141 6.8792
6.3216 16.8046 0.0348
15.0147 16.7822 2.4008
18.5280 14.2605 18.0313
5.7967 7.4444 7.8580
19.9759 11.7835 7.2142
8.5611 5.5031 0.9654
2.0342 16.6935 5.7125
18.7118 4.9865 5.3146
10.2193 3.7970 7.4670
19.1233 17.6853 16.2392
12.6179 18.2685 18.8140
10.9846 14.3915 0.9895
14.6470 9.0172 15.0534
12.8898 5.7242 0.9795
18.5355 2.5462 9.4437
6.8733 5.9554 14.7807
19.5259 5.2034 13.1199
6.0167 11.1464 7.8874
3.3466 3.2331 4.1575
18.1192 9.9415 4.4005
18.1252 19.9295 8.9992
2.7919 3.8481 1.8143
6.8391 1.8219 4.7825
5.1672 11.3924 17.7450
14.9932 8.2556 8.2777
10.4834 7.5373 6.7641
1.2412 5.5503 19.3537
2.5175 10.0679 12.5925
17.2572 4.3193 5.4204
4.9691 7.9951 8.9172
19.0789 16.9737 17.4578
0.4362 0.6449 14.1902
17.9139 9.4654 11.7435
0.0036 7.8304 18.5365
16.5118 17.1093 19.4448
4.9693 2.1809 3.0876
10.4473 13.6415 18.8298
14.4347 12.9470 15.2960
9.1465 11.0300 0.7909
15.6460 4.6515 18.3984
12.9101 6.0756 2.5593
5.0359 12.7258 13.9716
2.2427 1.4070 10.4887
11.6578 7.7616 4.4717
12.0212 0.2092 6.0304
9.2138 19.1788 12.8915
17.6755 9.5061 4.6954
4.9412 19.2123 14.0931
6.1480 0.4357 9.9662
13.4893 8.4003 5.1451
13.3471 18.5032 4.5357
0.6819 6.7610 8.4111
13.6513 3.9616 15.9413
14.7826 10.0976 4.1044
19.3972 6.2343 16.4001
4.6162 4.4289 15.2094
5.8987 19.0385 9.9153
3.7463 4.4665 8.3406
13.3059 18.9752 2.9277
7.8692 4.2590 19.4824
2.8382 1.0368 1.2027
7.8664 17.9633 17.6717
14.6545 19.9506 18.6319
6.5849 3.7102 18.7176
14.9262 0.6379 13.2886
7.5724 7.4777 6.6339
3.3852 0.0574 5.5961
7.0293 19.1103 2.4742
19.2854 4.1480 7.1326
16.4315 16.4402 8.6490
0.9851 9.4693 7.4543
18.3901 3.8605 7.2850
17.9399 0.6056 8.2160
16.2365 15.3334 0.8130
0.6971 1.2516 18.4015
5.1403 14.9457 17.9710
6.7814 5.4463 19.1538
12.3396 5.2434 14.3327
6.3297 5.5126 0.0754
15.1130 18.3292 12.6796
18.8650 0.4851 4.6773
9.5038 19.1356 19.0782
7.7303 5.0209 8.5988
9.8695 18.5620 3.6588
16.0514 14.7698 16.4551
15.4562 12.1451 6.5560
6.3910 7.2372 15.6450
1.5803 3.9462 15.0577
4.9462 1.2947 0.6773
11.0519 6.5152 19.6051
17.6695 19.7565 5.2978
1.6817 1.9285 9.9695
14.1954 8.9393 4.6839
8.3368 12.4062 13.4822
14.9595 16.9397 13.2885
2.4233 16.8174 5.8756
11.3377 7.4594 14.7613
3.9838 4.9486 4.9068
3.0664 17.6834 11.5656
6.5268 7.9214 19.8490
10.1465 4.6276 16.1689
13.0665 19.8191 2.0466
9.4953 16.3821 16.8111
18.2875 0.8072 5.8735
2.3843 3.7915 19.4593
11.6639 18.6035 7.4447
17.3225 8.9823 5.1990
15.5555 18.9140 2.1156
11.9229 12.3990 4.3529
7.3742 2.8274 4.0795
5.0983 11.9885 13.0329
4.0688 0.2276 6.5450
13.5664 3.7029 6.2439
4.0682 15.9056 10.9609
1.2654 2.0278 7.9059
11.0028 12.7836 1.8231
3.2738 13.9081 8.1958
5.6660 6.1519 19.0638
6.2472 11.3304 7.1436
8.3289 17.2849 19.9324
7.2756 3.9440 14.5606
4.0733 0.1175 18.0326
8.4751 16.4074 8.1244
17.6568 9.2181 3.2509
0.2967 11.0310 12.8133
18.1959 1.7806 12.4439
7.4169 10.0893 2.9177
5.6659 10.4232 18.5100
2.1759 9.8102 16.0963
19.3375 3.9468 2.5330
18.8615 19.5109 9.6547
1.0675 18.5234 7.7579
18.0844 12.4069 16.4911
3.2055 15.7165 4.4415
8.0897 16.9270 16.5838
3.6593 4.3627 7.9949
10.3579 7.6715 2.4611
4.9412 14.4977 17.9459
0.8220 11.2469 15.1492
0.7626 16.7641 2.3546
11.9904 11.0010 12.5408
6.1243 8.4014 11.6525
8.5148 13.1769 8.9358
8.7671 0.4675 12.3778
9.7900 4.7050 15.2713
15.5995 9.1658 3.5914
9.4644 2.1415 2.5691
8.6120 1.8343 8.8393
10.2032 0.8153 12.7287
1.6448 14.6696 15.5527
10.2296 1.0853 10.0785
7.5573 19.0174 2.7237
17.1414 19.9225 14.6417
16.2998 3.8741 19.6346
9.8374 19.1328 18.3208
3.3022 15.7676 18.6117
1.3103 7.0179 15.1236
3.1753 17.9307 5.4999
16.3125 2.8714 10.0444
18.3982 4.1665 5.2574
10.1201 6.3816 0.7367
3.6419 3.2246 18.7281
13.5936 17.9083 3.3748
15.6974 2.3016 10.6144
12.7264 7.1956 17.4590
11.1036 11.6009 17.6507
2.0922 19.8591 12.5955
7.8851 15.9534 5.2951
19.8100 11.5472 7.2050
15.2928 8.8456 3.5351
14.8719 0.9658 16.3965
5.0731 12.7848 19.6811
11.7174 13.2740 6.2530
0.0358 0.6759 2.9873
12.3210 8.6447 10.2536
17.9108 2.6405 4.5452
13.0622 0.4458 0.0523
7.0993 2.1273 7.1430
4.4852 11.6718 11.7818
4.0837 12.4786 9.4980
2.6950 18.7318 4.8718
2.9863 1.9161 12.7642
17.4257 15.6431 8.0391
5.2848 0.2299 12.8989
11.2466 7.0067 12.9121
8.8751 18.7431 14.6704
4.9699 18.0701 0.8800
10.6305 8.1198 4.7534
1.1676 15.5774 0.2470
11.0185 18.8184 2.8453
3.9904 12.1617 10.1390
12.8314 16.2676 3.4928
6.1876 6.0053 0.9698
17.7870 15.6595 14.3080
0.1270 16.8886 14.9037
9.3053 14.8351 9.0497
4.5190 2.1056 4.6459
0.7764 6.7103 14.9931
13.9022 16.9067 14.2337
5.3198 11.0758 8.7211
15.7690 10.4649 5.3059
12.8401 19.3028 4.3399
17.6009 0.3046 5.2074
4.7222 14.8776 18.8940
14.9230 6.5374 17.6033
6.5711 4.7834 18.1514
12.6139 13.8569 13.3047
19.5803 9.3899 16.7942
13.9524 17.1505 8.7443
14.4925 11.4068 6.1550
4.2393 12.4524 1.5560
18.2158 2.8919 0.5381
2.1336 18.5790 6.8973
2.8368 0.5747 0.8330
13.8525 12.6776 13.9402
14.7357 1.3153 11.8095
7.2681 16.3512 16.3913
17.8256 1.3190 17.3558
18.2882 18.8865 2.1423
4.1145 2.2394 0.6885
16.9543 16.2404 12.6835
16.5012 12.6307 5.7473
1.9975 1.9572 15.1473
4.0999 6.3828 8.4753
0.4184 5.1340 5.6519
14.3152 7.3605 6.4166
19.2800 10.0747 17.0275
12.3655 0.6196 8.2584
8.7290 15.4605 6.9356
14.0932 10.7576 4.3315
17.2448 1.8178 16.3962
3.4074 0.0260 4.0407
15.2436 19.5573 0.0872
9.8165 9.8297 15.9354
3.6904 9.8916 6.9437
16.6367 5.2115 18.8774
5.6746 4.2943 13.9896
9.9663 2.1985 12.7306
1.6177 15.7583 13.9432
15.7387 12.5586 7.1123
8.0254 7.8920 17.8081
1.7235 17.7690 0.5035
4.1223 5.2639 18.0243
10.0238 7.5861 17.6796
4.6715 9.2182 10.6309
15.0895 15.0598 12.9260
6.9697 6.5332 3.1065
16.8621 13.2420 14.8397
3.3910 8.7760 15.4687
11.5834 2.5211 9.2404
17.7025 4.7588 3.8315
6.0302 14.0633 16.8732
3.0919 3.1197 4.9516
6.5313 10.4436 3.2185
6.5615 3.7855 19.5030
14.5746 2.0361 19.2477
2.0328 7.6847 19.6767
15.8978 14.6659 8.6985
3.9238 12.7596 2.1374
4.1289 7.7668 0.6786
7.9804 15.8201 13.8688
10.0097 12.6476 9.2656
2.8363 12.0742 8.0943
14.8189 18.1601 8.6006
11.4796 14.9820 8.4231
4.5713 14.4444 17.6015
15.4810 14.0016 17.0489
13.5919 12.8308 9.0781
6.2603 12.5655 1.9573
8.3916 15.6476 14.2630
12.5923 5.0012 8.4716
9.1039 12.4314 8.1869
13.5049 18.6039 3.6612
13.0898 15.5636 7.7742
9.7968 19.4924 0.7629
10.8672 3.2169 15.6358
18.8118 10.3844 2.0217
11.4912 10.8207 14.3459
10.2438 12.7852 16.5797
10.4338 8.2070 18.9595
4.2018 13.6872 7.8499
15.2540 2.4479 19.6894
7.1095 1.1324 5.4871
7.9937 0.2662 8.3716
8.4109 13.9651 7.0425
5.3031 4.4885 14.8294
18.7986 10.5415 4.3783
16.0297 7.8393 4.2403
2.5860 15.5322 16.1914
12.6860 9.3832 11.2411
4.5197 19.2773 7.0626
12.7759 16.3748 16.3236
9.3620 5.8868 10.9654
2.5033 16.6749 7.0949
17.0134 5.3485 7.5230
5.0710 8.5221 3.7178
0.0539 14.4358 5.6242
4.8993 6.0364 9.5910
8.5699 12.7460 13.1853
7.2486 18.5745 17.0889
1.1413 16.5580 18.1161
15.6808 2.8080 16.6266
12.6632 0.2997 0.2296
19.0354 13.1191 5.0005
2.0302 2.8547 4.6728
15.5261 6.9289 3.0534
18.0817 15.8335 3.3583
17.8227 12.1673 15.6256
13.3692 17.8783 15.7615
16.7761 3.9474 13.8559
10.6159 14.8382 8.7717
17.6536 11.1013 5.2899
4.6835 2.7868 9.8615
1.1691 9.3419 2.8884
9.8274 9.9635 10.7909
17.2576 0.1321 16.8154
9.3592 11.2514 13.3060
16.8113 7.4992 8.3763
19.2123 1.5079 12.7408
12.7225 0.5706 12.1935
13.6518 18.6299 6.6091
19.6343 10.2125 9.6935
17.9512 0.6779 14.3637
12.5056 6.7721 17.2338
7.3232 9.4907 10.5108
15.4115 4.2145 8.7038
8.4478 11.0806 16.5345
5.8577 16.5547 8.0746
10.0750 5.4340 10.1285
19.4999 13.0912 15.8390
6.6179 6.3419 5.9844
11.7290 12.6964 15.6843
0.8010 14.4535 17.7120
10.9080 0.9940 6.0081
0.1242 3.7988 18.4286
12.1737 13.1603 15.7805
18.1964 12.2348 12.3340
12.5363 13.9281 11.9262
13.6196 4.2500 13.3400
9.1576 15.2535 2.0272
3.6260 0.7396 15.4907
18.2817 13.1143 7.3774
16.4522 15.7308 11.2420
5.1601 6.0408 8.4357
6.3695 8.6135 12.8353
18.6772 1.0924 11.3501
0.7876 2.3769 16.2066
11.5064 18.3726 8.9294
0.2826 7.7429 11.8394
18.7544 19.6157 9.5090
8.2483 2.0409 12.8901
4.2455 3.0353 0.3106
0.0957 13.6752 2.4334
19.3270 1.7628 17.3910
2.5794 0.3555 14.3870
4.8454 14.6711 3.7482
1.0028 15.4805 14.2710
17.1099 14.5944 1.6858
12.5725 14.1847 9.2116
18.6469 5.0810 19.2863
14.3442 0.2280 0.2946
13.0139 16.3469 1.5936
6.2213 14.5888 3.3199
17.2194 9.7266 1.1956
7.3513 11.4993 8.7745
13.5376 2.8981 15.9472
7.2653 12.8978 12.5941
8.3593 7.7147 15.7248
18.8984 15.6925 11.3363
5.8478 1.2128 19.4790
14.0653 16.5482 6.6408
12.1165 19.5490 16.6258
12.0227 6.1720 8.5712
17.7625 7.5335 13.6964
12.0356 17.9223 16.1496
5.6662 0.0337 5.2609
8.4500 11.7329 16.3197
17.7487 0.8459 16.6646
16.2350 17.3441 11.4382
5.4770 17.0237 16.1407
13.6928 18.2750 6.9371
1.7013 11.0735 15.9478
4.0086 15.0037 18.6345
4.6806 12.1380 13.5532
9.3065 4.1317 5.0947
15.0227 15.8333 9.1943
1.7540 16.1315 15.4433
4.6573 11.5918 17.9386
17.7019 10.4372 9.5317
11.7866 3.7830 3.8463
3.6139 14.0213 7.2565
11.2886 8.0498 10.3443
2.9802 0.8919 19.9428
7.4808 2.1224 12.6548
15.7470 3.1231 11.9442
6.8984 10.3891 0.4114
0.6716 19.8081 17.3216
9.7263 11.3437 5.2319
15.5838 8.5190 18.9300
15.3450 16.3766 19.2694
5.0799 0.7574 4.0198
3.6147 1.6731 1.0200
11.1476 17.4133 9.1656
18.9441 18.1984 1.2837
11.9614 7.9479 2.3983
19.1859 5.1439 11.2895
12.8127 19.1284 13.3944
7.8624 8.9669 3.1946
19.3154 19.8343 4.4344
0.7726 5.1172 7.0402
18.0551 18.0914 16.7444
0.9408 15.7275 14.1922
12.9337 19.7085 1.1154
2.8960 15.0990 18.7876
13.5378 5.9759 11.8293
15.1580 2.1084 6.4784
5.1402 2.4829 9.6263
3.3715 4.7691 2.8630
13.5529 0.2523 14.3445
3.9021 0.7203 18.5536
4.4110 18.6795 17.3350
17.7742 2.7953 8.9449
1.9397 18.5756 16.8450
12.5674 9.0467 6.7956
16.4612 9.5508 12.5637
2.8554 4.4330 1.1345
14.2745 11.0675 2.8942
17.4145 5.3279 8.2356
3.1137 5.4221 16.7913
6.6902 3.3560 9.8201
6.3613 18.0634 2.2834
19.5724 1.1371 17.9008
13.3656 4.2232 9.5491
5.7247 5.1559 4.0324
7.2856 19.8204 19.9617
18.5016 1.9513 5.7886
17.9240 1.1496 14.5295
5.8705 19.5726 0.3206
16.1405 6.8181 2.8029
0.0385 16.6449 10.5317
3.7164 8.7050 18.2396
4.3653 11.4268 2.7615
3.6026 15.4089 14.2324
3.9342 1.5853 1.7484
12.1711 9.9096 5.4778
4.1206 12.2487 14.1552
16.2317 11.6587 4.0458
1.3139 14.6543 8.1625
14.4331 1.1074 16.2129
6.7044 16.8382 17.2901
9.8603 0.3089 18.2043
9.5323 17.4403 5.3252
3.7210 16.6325 7.3420
3.2698 7.4233 11.8979
0.0928 10.3965 8.9153
10.3125 2.4154 14.2918
16.3307 17.3094 6.4196
14.2237 7.6278 15.0263
1.2242 17.4561 19.0810
9.8961 10.2663 10.6102
10.7466 0.4138 19.3485
4.4740 3.6479 2.0535
5.0092 16.3431 0.6015
1.9294 13.9793 3.9017
0.3537 11.9880 11.5297
10.4582 14.0529 2.0573
17.3905 14.3420 0.9034
2.4610 9.8718 10.0151
5.5925 2.4407 8.1130
2.7391 11.8362 17.2218
2.9444 11.4568 14.9316
3.2865 16.5203 18.7516
7.7749 8.4097 16.7945
10.5123 7.9127 18.8258
15.5381 6.7710 4.8075
6.7017 8.7116 19.6244
16.0876 18.2554 16.3009
16.9526 1.0711 10.3475
19.1572 18.6867 4.9857
8.4427 12.6538 7.2886
10.6160 1.3853 8.6608
10.0955 0.4166 2.7881
19.3939 15.5316 18.7387
12.6642 16.1854 17.6875
17.6928 0.6875 12.8315
5.3154 13.5688 5.4687
10.8451 18.4877 12.4252
5.0116 10.4061 8.6738
19.0173 5.7505 6.1082
12.9504 2.4076 11.8858
19.1217 10.2756 5.3682
9.3283 10.6766 2.9681
2.4784 2.6274 5.8720
8.1309 5.7661 4.8680
1.7569 10.9263 16.7949
12.1991 11.4036 13.0071
4.0238 14.2072 9.2177
10.9606 12.2560 9.3793
6.2101 4.8451 4.4316
10.2490 7.6634 11.7137
0.2376 7.0531 17.2373
4.7708 11.1331 9.8281
5.6964 19.7502 5.9101
15.4426 3.1713 1.3360
17.4255 8.7997 1.2403
7.7577 8.7979 14.7083
2.1849 4.5033 19.1861
14.7727 3.0904 6.7403
7.0491 13.5069 12.3259
16.9999 16.4239 10.3554
14.7753 14.8656 15.1939
9.5048 15.6988 14.1710
18.2941 2.5455 17.4165
0.0865 15.3135 11.7167
9.9577 19.2548 11.4392
8.3582 15.6737 17.4552
12.1467 7.5912 9.0457
9.1580 14.4612 5.8584
7.8137 11.1070 7.6900
6.4399 15.7416 16.9913
9.9910 8.8806 3.6842
6.0807 2.8998 11.5087
11.6316 1.7586 18.4032
6.4773 16.8678 16.7631
19.1753 4.0862 8.5289
18.2115 0.2138 0.9488
11.2987 9.9467 18.4062
15.4696 10.7700 19.9666
10.3490 10.3453 13.7046
7.7904 7.1542 11.8944
7.0221 18.9580 13.5295
10.5050 1.9793 7.4883
8.0179 11.2268 11.4811
17.5967 19.2894 9.7343
8.8033 12.4921 19.9225
6.8656 10.6028 16.3177
3.4144 6.3616 19.5685
16.5206 10.2519 2.2102
17.8902 13.7977 16.4111
19.8050 17.7629 8.4177
3.1280 5.7985 10.2321
10.0977 3.7622 3.6482
12.6020 12.0626 7.0637
19.8750 12.7302 0.8463
8.2284 15.7527 6.1348
13.8140 0.0783 6.0891
16.8432 11.7240 13.3621
3.9330 9.9572 11.0650
5.3204 12.9362 10.6298
19.9422 11.4894 8.2220
2.4300 3.1354 15.1899
2.1329 2.0021 3.4107
10.4499 16.4628 12.2601
16.1320 1.2423 0.2498
15.4116 6.4564 14.3092
7.0769 3.3883 5.3322
1.9891 18.0771 11.6452
6.9779 8.9968 7.7131
1.0936 17.8108 11.6532
19.1923 8.7928 12.4036
4.9866 0.8796 18.6165
17.0943 6.2959 17.9774
16.3180 6.0735 12.0511
19.2006 9.9110 18.9942
4.8586 7.7959 14.3693
4.4280 6.1832 17.5062
9.6878 15.8551 4.8678
3.4694 7.1679 3.7311
19.4309 5.8140 11.2307
2.2977 10.6750 7.7119
8.0639 1.3089 2.4658
16.5165 7.0250 4.8987
3.8239 5.6717 4.7435
0.6983 13.2855 6.8284
3.1179 14.1174 1.8526
5.3934 16.7002 2.5559
8.8662 16.7263 16.0988
3.1844 7.0584 14.4493
7.5379 19.1681 4.1612
19.0188 10.0966 4.5455
9.0538 2.6189 14.1295
5.2152 17.9923 11.7513
7.3599 4.9250 12.1641
4.2508 17.4478 2.4558
10.2606 10.8519 5.4082
15.4349 7.6964 13.1504
11.3536 6.2158 7.7987
1.7207 3.5409 17.0201
6.4207 13.2550 2.1792
11.2398 7.2296 10.0073
5.9392 1.3182 6.2255
4.5285 2.5227 14.3338
5.6473 8.0676 18.1785
15.4999 17.6551 17.2256
2.6434 5.5304 0.5915
13.5925 13.2722 7.0286
8.2514 13.1813 13.9850
4.9684 16.9343 7.0423
12.5765 3.6331 2.3046
18.2537 14.6811 14.2517
0.8090 0.8000 3.2403
3.9618 6.0615 7.6148
0.7847 6.2183 12.7663
3.5934 16.7893 11.4033
14.3327 5.0942 8.6986
13.6866 6.9808 0.0194
16.6855 15.5295 5.7267
0.8592 17.0830 12.1477
0.9469 4.8891 2.2237
15.8288 4.2028 18.2896
14.9905 1.7227 13.8935
7.8727 14.9512 16.5748
5.6233 1.7987 18.9272
8.4795 18.6042 13.8324
14.7722 16.5998 12.5620
9.0556 1.0860 13.9651
8.5670 10.2376 18.5626
2.5529 15.2384 0.8738
