ply
format ascii 1.0
element vertex 350
property float x
property float y
property float z
end_header
-3.535191 -4.974791 2.382679
2.164154 2.062482 1.286339
-3.007010 -2.717642 -1.276605
-0.420424 4.033505 3.633316
-3.040023 3.716997 3.946896
-3.582917 -0.299852 -3.799852
-4.627319 -3.094091 -4.275215
3.761185 -2.688187 2.305924
4.773955 -0.649387 -0.241245
4.384672 -4.794272 3.376475
-1.701098 1.736207 -3.572807
1.126593 3.616037 4.470107
-2.075618 3.215536 4.991715
-1.888836 -4.103918 2.219987
-4.633642 -1.738386 -0.957688
-2.090999 -3.449176 0.927212
3.874997 -3.282408 1.834513
-1.472199 -2.406055 1.015441
4.756522 2.581508 1.095334
-0.212898 -4.740957 1.274733
-0.393577 1.597013 0.028939
1.356100 2.816503 2.313174
3.092450 -2.582653 0.165451
-1.905724 -3.335196 1.921242
4.994728 1.948761 2.089421
1.505981 0.678101 -0.213220
2.128752 -4.555412 1.057625
3.014527 3.435513 -2.961947
2.108849 0.737816 4.398034
0.594578 0.633640 -1.912824
0.572744 -0.261216 -0.282193
-1.733188 3.291930 -4.534728
-3.908073 -3.292483 1.813093
4.508982 -4.120943 -1.843965
2.534695 -0.238551 1.579917
0.332431 2.651588 4.370214
3.701713 1.547491 -4.201817
2.607810 -2.405329 0.465555
-0.980375 -2.725608 -4.062169
1.430224 -3.242359 -1.798251
3.316105 -1.362350 2.845369
4.241248 3.822346 -2.954170
-3.131779 -0.769419 -3.453522
2.681557 0.864486 2.981978
-3.064900 4.825962 -4.072109
4.809734 1.951968 0.419691
-2.304768 -2.763322 -4.632630
4.297679 -2.323440 4.617601
-1.953206 3.673164 1.267192
-2.634461 -1.817526 3.015378
2.398574 -0.088636 0.846703
1.040315 4.426355 -3.820797
2.455408 0.982965 0.972816
-4.340234 0.973889 1.055007
1.462165 -3.622492 2.252765
-1.137367 1.236589 -1.090606
2.026698 -2.140032 -4.999568
0.839382 1.828703 1.541513
4.182279 1.853377 2.464613
3.992942 -3.099649 -3.684707
-4.238078 -0.694125 1.131951
-1.728176 -0.245445 -1.513875
0.159432 -4.846763 4.376392
-3.336158 -2.173339 4.758019
3.888185 2.529435 -4.196456
4.141880 0.705363 3.736595
1.562919 -0.368050 0.417555
-3.048545 -2.364625 1.029226
2.373050 -1.883562 -1.197226
3.431276 -2.189032 2.273042
1.677510 4.407267 2.425717
3.787018 -3.039774 -3.813245
2.717070 4.371665 4.170691
-4.045271 -4.314415 3.553495
-4.525038 0.204419 -0.560534
-2.957786 0.279002 0.667556
-2.360393 1.280586 -0.220585
-3.674215 2.576406 -3.322673
3.558518 -0.203006 -1.026297
0.046371 -3.273961 3.926759
3.762209 2.979337 3.072825
-4.682939 -1.764238 -3.915130
1.817782 3.183447 -0.571054
4.247735 -4.235993 -1.962310
0.779129 3.643392 -4.978370
-0.606116 0.825752 1.534620
-3.194009 2.377175 -1.640205
-4.969307 -0.281280 -0.336975
0.689243 1.324531 0.100007
0.896556 1.764262 -1.272094
-1.580067 3.602860 0.892480
-3.035101 3.033168 1.970008
-0.270202 4.665739 3.750074
-4.603720 2.567236 0.561497
0.305037 -0.002882 -2.809047
-1.698649 1.684287 -1.275165
3.508487 1.465592 -4.973561
3.896439 -1.987430 -2.419142
-0.326295 3.874883 -4.591792
-4.732048 -2.734044 -2.206908
-0.725549 1.618978 -3.943702
-2.505053 3.563863 -0.014850
-2.982448 -1.639390 -1.357318
1.565500 -2.950496 -1.783725
4.498892 -4.350602 -1.988898
-1.558789 -3.843565 -1.600834
-4.944377 -0.464992 1.415071
-2.997845 -0.570345 2.311217
0.571335 -4.102972 4.498250
4.988201 -0.423402 2.508677
-0.459129 -2.896998 1.187999
1.368623 1.189101 1.926100
0.442933 -0.959517 0.827773
4.124928 3.195272 -3.250586
-4.193895 -1.292656 2.918887
-2.980691 -0.445304 -1.952571
-0.026639 2.382308 -2.469286
0.095977 -2.743760 -1.868670
4.770986 3.363370 -4.734627
1.965753 1.128812 -2.178162
3.558967 -1.304721 2.181186
4.986211 4.420828 -3.875214
-0.346179 3.800282 1.141321
0.802815 1.527720 3.550605
1.823135 -4.023074 3.876578
-2.987349 0.373229 -0.274836
-3.241335 3.066925 -3.313923
-4.596581 -0.539515 0.311818
-3.551171 -3.856504 1.706463
-1.744947 -2.533601 0.960614
4.496084 -1.550497 1.811851
1.721850 -2.144533 -0.010844
-1.930245 -4.536859 -3.680542
-1.487700 -1.991660 4.098520
-1.224399 1.089442 -4.317096
-4.451052 -3.803529 2.543436
3.315718 1.366541 4.695328
1.979803 -0.141238 3.525452
-1.366472 -4.631325 -0.829466
2.125899 4.461722 0.834010
3.686846 2.079722 -1.515203
-2.673528 -3.280835 3.076539
-1.098234 0.460410 -4.176814
-4.811884 -0.414809 0.627262
0.395626 0.878120 1.098299
4.018792 -2.720661 -3.100894
4.128960 -2.279454 -1.643337
-4.722572 2.363533 0.115035
-3.214322 -0.700591 -3.837013
0.309290 -1.391197 -1.817121
-3.420997 -1.865008 -0.684513
-0.360733 -4.974584 -2.835861
1.376228 4.814147 2.950692
-2.597762 -2.572070 3.500905
-2.494378 0.953038 -4.346448
-2.792065 -2.690476 3.967644
-0.152998 2.462549 -3.614655
2.523348 -0.895994 1.957778
2.362554 4.098272 2.266042
2.169137 -2.970084 2.843869
3.743221 1.955959 0.835183
2.305201 -1.860954 -3.199719
-4.991952 -3.709688 -0.685877
-4.278414 2.442129 -4.180030
4.756241 -0.491664 -4.482392
-1.334730 4.727775 -0.369820
2.606716 1.572191 1.611939
-2.821108 3.508337 -1.268900
-3.942066 -4.231306 -4.411088
0.667955 -0.543452 0.933394
-1.530816 2.979048 4.249844
3.045837 -1.517072 1.172105
-0.952066 1.390502 -2.765132
4.816973 0.846072 -4.672199
-0.499959 -1.763531 0.211452
-4.032499 0.032600 -0.677864
1.349329 -4.868695 4.376537
-2.031468 -2.033521 1.326703
-2.635476 2.229829 -2.357831
-0.977615 4.807477 -4.124542
4.288173 -0.445935 -0.767600
3.008538 1.676660 3.642720
-4.003237 0.164990 0.687618
-3.289230 -1.528851 4.836824
4.938501 -2.869153 0.676342
0.704437 2.029843 2.463409
1.572537 1.052811 -4.563223
-4.611405 4.688939 1.751543
-2.512843 -4.076570 1.674280
-1.845810 4.696530 -3.562138
-1.777784 0.786217 -4.226967
-2.932673 1.701809 -2.688567
-3.773478 2.856332 -2.199900
-2.268278 3.158062 -3.749900
0.415362 -3.078269 3.475018
3.098223 -4.688278 -3.388065
-0.282927 -0.283443 2.156034
0.219612 -0.652567 1.301143
-1.532826 -3.767813 3.207182
-3.823760 4.977755 2.610892
-2.047043 4.297883 -1.323791
-4.159829 -2.790784 -0.516748
4.728466 2.807653 -0.044577
-0.125964 -0.820173 -0.481126
-2.645002 2.291571 3.182054
1.833990 1.537167 1.452280
-4.822384 1.205853 1.162614
2.156881 -1.228600 -4.132866
4.464615 0.702863 2.505509
2.204695 0.482990 -0.519926
-4.988931 -0.342010 1.771176
-1.140401 0.839757 -3.613713
4.933874 3.730678 -0.027756
-3.947365 2.873152 -3.227161
-0.237066 -1.892249 -0.339281
0.123466 4.168026 -3.418637
-4.759210 -4.859530 2.169226
4.008576 0.742139 -4.089627
-1.349526 -0.055986 -2.417054
1.091675 -3.754314 2.714511
0.500302 -2.194732 0.433666
3.735337 -0.986203 -4.614407
-0.680144 -0.310694 3.343468
-4.463384 -1.550843 -1.268154
-1.675437 -1.200144 -0.507712
4.489817 -0.449871 -1.726117
-2.524683 2.145086 2.271990
-3.195611 -3.638469 0.180981
4.825503 3.871316 -3.586068
1.797001 -4.234031 0.394949
3.350147 2.404171 2.757253
-0.692080 -3.110010 -4.037551
3.060572 -4.890938 0.630260
-4.543375 3.218745 -1.357119
-2.198916 3.436429 -4.099143
-0.248201 -1.388122 -3.298945
1.621554 -4.966632 -4.839727
-1.148089 3.233014 1.694717
-4.607479 0.771371 -3.871012
4.704562 2.887681 -0.400738
1.870289 -3.030181 2.611515
1.967437 4.140347 3.977573
2.204474 0.035450 0.114137
3.434636 -4.590208 -4.015019
-3.236846 -3.927975 -0.272585
-4.550449 -3.956805 -2.804965
-1.586369 -1.277164 -2.752978
-2.284422 2.045243 -3.380189
3.314735 -3.921829 -3.752946
-2.503068 1.914256 -2.342969
1.702243 0.154933 0.214477
-1.613225 1.277781 -2.222713
-4.391727 -2.480318 2.055190
-0.258355 -3.324420 2.843335
1.041972 3.424969 -2.599291
-0.138178 -1.753951 4.347828
3.249777 -2.285489 0.241338
4.656795 0.907951 0.693940
-4.467966 -0.657042 -0.673017
1.469617 2.371463 -2.888733
4.034024 -1.302397 -2.735928
2.517370 -3.464538 1.977860
3.147448 2.395247 -1.947063
3.363634 2.742009 -2.962707
-0.879935 -3.257933 2.261288
-3.918926 1.892863 0.477685
-3.241085 2.001548 -1.551515
0.266147 0.501966 -1.066451
0.634488 4.024443 4.363428
1.948273 1.765518 -0.911560
0.573640 4.824939 -1.676219
-1.492570 -0.210471 -2.387544
-3.738928 1.080517 -3.598238
1.556262 -3.567273 -0.594367
-3.252651 4.681556 -0.188018
2.587113 0.805610 -4.702200
2.331185 -2.325434 3.887445
-1.008048 4.736925 -2.414895
-1.838216 4.446171 1.184565
-1.218281 0.380841 4.657054
0.383660 -0.065639 3.306287
-3.580084 -1.678194 -0.405138
-4.557038 -0.020883 2.661272
2.657700 1.139079 -0.637115
2.875334 1.569067 -3.929990
0.878934 -0.623901 -1.843672
-3.913127 0.013970 2.750971
-3.415452 -4.931034 0.418532
-3.816648 -3.889307 2.662783
1.677186 -3.265530 -2.328516
-0.858156 4.624745 4.032490
-4.769858 4.779705 1.082375
2.954661 0.423256 4.058821
4.462407 -3.722119 -1.676629
3.086922 -1.473923 -1.086521
-4.340385 1.398036 -0.915538
-0.549347 -4.881557 -2.760553
-2.331198 -4.128636 1.019029
-3.358546 -0.667075 4.726857
2.787288 3.562816 -0.229862
-0.160609 -0.450902 2.573149
1.730293 -0.960611 4.429634
-4.229023 -1.028726 1.013406
-2.725728 3.351288 -4.046551
1.796399 -0.377954 1.978856
3.512793 0.259347 4.455792
0.965066 -4.485723 3.416712
2.504428 -3.053033 -3.663572
1.813706 2.144019 1.837823
-0.753521 -3.351897 -2.515566
2.251239 3.859118 -4.595594
-2.781805 -2.136417 2.883525
1.491721 -1.448673 -4.294292
-2.804508 -4.558567 -1.129524
2.140875 -1.683304 -2.560137
0.759107 -3.901736 -3.762932
1.958829 2.061902 -0.380231
-3.840789 2.616617 -2.670974
4.116827 2.831031 4.597467
-0.467392 4.452588 0.160953
1.894308 -1.921896 -0.315673
1.181546 3.396873 0.016034
-2.232451 2.828776 4.752750
-3.774463 3.135089 -4.231141
3.851890 -3.411599 -3.576112
-1.056994 -1.721907 3.095781
0.653666 2.383731 4.096545
1.245535 2.138260 -1.982682
0.329938 1.515015 0.289461
-2.835915 0.916598 0.945999
-4.878939 4.863052 0.782445
0.384091 -2.811889 4.198594
2.659797 3.133141 -2.096759
-2.581021 -1.842986 1.390106
-3.353036 0.546650 2.752418
1.308230 2.918777 -1.216797
3.653472 -4.568700 1.164364
0.557801 -0.438164 -2.672604
-2.860687 4.925096 1.088317
1.095645 4.579518 0.531122
-0.618735 2.690888 4.311689
4.956451 0.653886 -2.647236
3.147528 -3.202706 3.388371
1.044043 -3.697658 1.069649
0.154706 -3.983262 -1.187187
0.324576 2.123524 2.141495
-3.787035 4.528554 -4.788051
2.857174 -0.604738 4.207377
1.372603 -0.427829 -1.072041
4.278920 -2.666432 -0.342552
