ply
format ascii 1.0
element vertex 250
property float x
property float y
property float z
end_header
7.521995 7.028565 7.564811
13.876192 4.119062 8.569475
2.247839 7.348756 16.752460
20.497533 8.104111 19.768040
14.483061 1.176984 8.026969
3.785158 9.558786 15.887126
19.239064 6.939580 21.416389
12.074855 10.527496 14.956548
1.624294 15.580950 5.539578
15.521374 4.646753 8.516754
21.463696 3.450441 5.796784
18.600500 11.229615 19.447929
4.914370 18.297626 2.009731
19.247507 9.281405 21.820890
17.565858 15.355741 9.628213
6.658319 15.918792 18.933421
21.577163 20.424484 11.326077
11.815883 14.145569 0.316715
13.474120 11.203637 13.632087
5.525811 15.129838 0.335869
2.568721 10.435242 0.618282
6.382550 12.638926 8.101866
4.764505 1.200431 17.321643
21.766409 12.550233 0.138917
0.272399 4.093178 12.701602
9.617860 11.566913 13.457471
7.462017 21.218721 13.482233
20.898625 1.630398 6.076008
19.609802 9.395406 21.068735
10.086808 6.702240 8.481622
18.045488 12.950667 7.596493
6.972663 4.776807 8.187858
1.913039 6.413823 6.455589
7.686464 1.046997 20.408264
15.827049 19.036370 12.591028
9.213742 11.520869 0.959684
7.503015 14.671723 3.669385
3.793033 2.188699 10.730002
6.427085 15.153835 0.747937
14.514116 7.784559 2.239323
1.815000 9.624160 1.106293
20.711318 18.526552 0.516674
9.952990 4.171230 1.970166
17.298154 4.951772 21.152507
13.661862 13.093259 8.576741
20.960053 16.907293 6.078906
1.712164 15.075379 11.522237
20.410789 10.259413 7.339353
5.484858 20.278421 17.814204
14.741035 14.163932 4.101097
10.150258 14.179044 5.658165
5.953390 13.854628 21.281175
10.970018 17.137494 5.392250
11.947772 20.262103 7.523251
4.095152 18.875446 20.704919
2.753400 13.935760 2.486657
4.456359 1.786210 18.285033
7.377713 13.543803 6.501650
14.073127 2.499154 3.508153
20.659854 10.680686 9.038780
20.074043 10.646274 8.860091
2.765117 2.705510 11.999016
21.156943 7.499008 11.491160
1.178358 9.880018 10.580198
15.469241 18.825239 3.387521
6.892222 6.565249 17.805070
16.765317 15.290070 20.853856
3.032384 21.038155 19.091459
16.727283 4.879614 17.111421
3.523081 20.157122 4.776671
12.251426 5.333894 11.161593
6.621340 0.265346 13.518332
19.520419 8.590244 5.946934
7.356003 6.327050 18.124732
4.346881 5.676667 4.524495
11.257464 7.764701 5.049605
2.951972 8.471365 21.961381
20.028541 21.544024 3.407586
2.057721 0.671067 10.550328
7.588390 6.720230 6.708874
17.488678 14.877959 12.219473
3.419468 7.354961 8.287629
13.376524 20.445699 8.721829
8.375205 13.776402 18.618174
11.163721 12.823695 8.536221
8.459367 8.241031 17.897517
5.430658 1.438133 8.945945
9.057396 3.344854 5.385104
7.353951 9.822020 2.041638
8.890401 8.617434 12.900991
8.297777 8.380203 3.509415
9.437314 8.442828 17.290794
14.086734 8.033243 11.830788
3.760290 2.087784 6.381625
4.203059 13.158542 20.322685
0.749936 17.946205 21.351521
9.312508 20.017093 15.956550
9.843830 3.350975 19.499665
11.966737 8.028052 7.661844
14.055252 15.100671 2.591537
13.090759 11.385547 0.306724
5.407598 18.901483 5.459108
10.123285 0.283191 8.925763
13.898370 8.119707 12.808000
14.626510 21.867455 6.700991
11.018289 14.436147 5.843006
18.674417 14.519244 10.082686
16.783926 2.589572 10.704751
8.763460 17.305916 19.321660
21.705602 12.906175 6.658089
18.710167 10.206137 12.767950
18.214965 10.506941 21.704968
16.172281 6.174984 9.858224
6.395264 7.729801 5.625169
3.905276 9.030801 21.406475
12.003575 21.325877 15.401982
1.813031 16.916153 18.184045
11.390472 9.258922 1.841599
7.397935 4.412428 10.830868
17.159278 17.737935 2.976334
10.077225 12.388352 17.187914
0.782384 8.389518 1.994021
18.225603 4.378484 5.524469
15.314098 15.006381 10.457852
7.327544 3.247274 20.493697
11.070264 1.680775 16.521049
5.239056 4.010599 21.472538
6.430181 15.019257 12.160620
0.957077 15.180306 21.508479
6.329116 19.630978 7.894860
10.146431 10.878893 4.908423
21.261525 11.990012 1.791874
4.478892 16.284388 4.708617
12.664192 15.714154 1.902756
17.019569 2.137139 19.941995
9.626878 13.497538 4.382229
20.059342 5.916749 19.651198
12.424450 14.690219 4.518284
5.888349 0.074035 15.251605
3.906025 16.129787 7.852941
21.406297 16.272781 18.102567
1.792942 17.103285 7.763106
12.381875 1.831578 14.500300
14.064908 0.726376 18.971335
18.783910 3.119092 12.583203
15.256952 18.779556 7.715723
11.557095 0.652500 8.283664
5.588477 12.532810 11.355598
19.429504 4.481806 11.639748
14.793291 10.872614 20.788155
20.381415 18.623484 18.635168
10.582954 14.376061 11.867624
3.567340 0.431379 4.851767
6.118248 7.670215 16.346599
8.988636 7.076186 16.676002
3.880969 10.726951 11.798287
7.405603 9.717014 21.487872
20.083759 9.118778 5.304274
20.092603 0.135734 12.954666
12.374170 21.376264 3.572319
7.527812 10.436883 12.278699
16.373757 19.725952 5.850437
20.446525 7.150392 14.903222
9.910639 2.502378 16.995887
4.512011 8.760786 6.459659
14.302367 21.838832 5.898113
4.749101 7.409629 15.916385
17.717788 18.386179 11.573594
9.365458 11.875166 7.163905
10.386206 18.796931 7.575627
9.978666 1.660958 16.051939
11.617483 5.694032 20.426672
15.892614 13.541338 5.444896
5.660968 12.307845 11.492547
20.136195 18.465301 0.473868
9.362962 20.909204 17.855012
0.142384 15.437518 10.577272
9.054664 5.267911 4.799849
18.075838 5.484413 9.148913
5.394576 4.740780 7.137334
16.332927 1.678460 21.357401
8.513099 4.408963 18.616267
13.053716 6.294933 10.184320
11.512734 14.038494 1.222625
10.856400 11.466623 17.960496
10.872339 13.933532 2.809892
4.363591 3.853566 14.050647
18.472462 6.791762 18.770635
13.172059 2.703374 3.526269
17.365703 7.362626 1.909744
13.282709 14.882599 16.815823
14.558827 18.504722 19.177254
6.123338 9.037616 21.576965
16.099110 15.561367 12.724510
9.380383 12.304846 20.259839
11.633165 2.489754 8.165235
7.980775 20.738069 15.564493
9.403986 17.622807 3.211448
5.149605 21.307053 7.074956
16.701983 8.728384 20.899318
9.475379 6.473322 13.010664
7.327989 11.201918 9.386818
7.017518 17.239444 17.785894
1.717687 8.181895 1.673875
9.231362 18.580783 5.285705
11.528919 11.276043 21.918640
7.444539 15.467590 17.307773
17.068638 12.878237 13.142759
13.783384 15.634431 13.123955
16.109357 0.609740 13.554181
11.034883 15.029991 4.988924
20.120436 1.441340 4.178944
4.690212 2.764232 13.177027
20.381111 21.461881 11.953688
15.779924 0.728707 12.375633
19.911288 20.301310 9.831833
21.236963 11.305514 7.678230
4.921883 21.786693 14.444024
18.774337 3.085413 4.408221
5.835814 8.002326 20.187017
16.421275 9.898388 14.193782
17.018987 7.925950 9.067204
10.913189 10.896850 12.837504
1.701312 17.939763 1.934623
7.484620 12.193233 15.553204
8.235438 13.979197 16.149846
8.640830 11.854885 15.141252
18.098630 7.295310 19.186494
19.962184 4.622367 8.179632
17.210967 3.041405 16.549152
10.549803 12.670037 16.344553
19.476171 21.190380 7.966282
18.416270 20.856244 9.521817
16.242050 17.080987 10.234234
14.508200 19.569266 9.349691
18.081813 10.812341 5.964436
17.242111 12.134156 2.841105
1.948935 8.832516 20.977726
15.323841 5.210362 9.615721
4.637917 17.637532 16.273099
6.308101 6.833385 12.827982
15.569391 7.084604 15.361105
3.784423 18.764611 18.262928
1.879134 19.373407 14.973288
16.738979 4.081584 18.216025
11.421170 6.193687 16.970256
18.316440 3.155324 15.411737
20.704554 0.635718 5.938125
0.000000 0.000000 0.000000
22.000000 22.000000 22.000000
