ply
format ascii 1.0
comment misaligned
element vertex 1200
property float x
property float y
property float z
end_header
3.296262 0.887535 2.043489
3.941499 0.982311 0.152033
3.569989 2.149855 -0.064054
3.472000 0.140318 -0.588762
2.483965 -0.389092 -0.841388
1.355262 -0.892884 1.002035
1.416524 -0.419868 1.811295
1.679266 1.031561 -1.492691
1.133593 1.036949 -1.333866
3.280295 -0.369360 -0.260878
1.080905 2.776494 0.514734
0.704792 1.674512 -0.836162
2.425119 -0.596344 -0.618738
2.162126 2.939449 0.881136
1.901886 0.581445 -1.449246
1.037731 0.180701 2.029333
2.732685 -0.819466 0.835732
1.530161 -0.507426 1.762932
3.084881 2.336083 -0.492303
1.317960 1.513962 2.321670
1.270978 0.587063 -1.290070
0.610807 1.627105 1.818304
1.565988 2.864039 1.143775
1.175515 1.251009 2.296053
1.785648 2.027221 -1.177638
3.851602 1.510494 -0.186671
2.389580 -0.972296 0.309469
2.172510 2.861288 -0.163058
0.923697 0.047005 1.862294
3.044628 -0.162467 1.770709
1.895129 2.620690 -0.682946
1.668745 0.425200 -1.399315
3.231710 2.608769 0.542732
2.007375 -0.900055 -0.072723
1.585946 -0.898219 0.133195
2.094085 2.946455 0.646466
2.239158 0.968488 -1.428784
2.032916 1.074881 2.514312
0.603875 2.441438 0.283179
0.482596 2.017257 1.321672
2.950811 0.191865 1.984785
0.884150 1.313468 2.115656
0.395037 -0.295845 0.707042
1.786585 -1.004971 0.598935
0.464615 1.374763 -0.660951
3.836718 0.430980 0.149339
3.391251 -0.426161 0.813976
3.493146 -0.297964 0.667230
2.182006 2.089163 -1.153253
0.075395 1.425668 0.907924
2.405476 1.985864 -1.220360
2.424895 1.794939 -1.230676
3.471172 1.780065 -0.520795
3.160476 -0.196522 1.621514
3.508138 0.314203 1.639617
2.253913 1.830706 2.295009
1.802386 -0.285060 -0.975348
0.129615 0.513775 1.274528
2.296883 2.966262 0.563533
2.986573 0.976783 2.269710
2.993317 -0.021502 -0.939419
3.175149 0.726468 2.119471
3.002904 1.040521 -1.260206
0.434124 0.243525 1.476015
2.701067 -0.837790 0.782027
3.123435 -0.641136 0.788434
2.425724 -0.883455 1.076517
2.451763 2.420133 1.798350
0.574079 -0.336791 1.090555
2.184903 1.319464 2.493398
2.415867 2.501247 1.677535
3.295747 0.643202 1.941654
0.475382 0.160016 -0.510531
1.747076 2.537270 -0.746955
3.100281 -0.650291 -0.110597
3.380176 1.383341 -0.868476
0.668804 1.874595 -0.665717
2.565325 1.248689 -1.378683
3.343824 1.747798 -0.830917
2.530296 -0.134487 2.003660
0.374876 0.454851 1.551100
3.407384 -0.383471 0.092708
1.635090 0.251960 2.308857
2.767092 -0.428795 1.613263
3.343578 1.974700 -0.623019
1.067221 2.502860 -0.398937
2.476951 2.312399 -0.914983
2.290523 -0.873026 -0.105711
1.979906 -0.245393 2.003930
0.214997 0.133617 0.701874
3.446211 0.048350 1.495339
2.341825 -0.795858 1.342402
2.955836 -0.710759 0.715249
0.955842 1.113582 2.227978
3.181295 0.281014 1.938415
0.111738 0.500794 1.071091
3.056821 -0.540173 -0.073042
1.336651 -0.142873 1.949178
2.824014 -0.039212 2.031639
2.277376 2.539883 1.697979
0.864105 -0.138764 1.670736
3.984231 1.245385 0.926602
3.772056 0.536562 1.214520
1.737197 0.548696 2.425785
2.775887 2.052687 2.017896
1.725231 2.792387 -0.357748
3.811145 0.584491 1.107482
2.649910 0.399052 2.292657
1.200546 -0.384687 1.648489
3.159368 2.293238 1.579468
2.332098 -0.964301 0.688540
0.621299 2.401546 0.236930
0.445578 0.105299 1.307814
1.152125 -0.771562 0.976429
2.900956 -0.236174 -0.790035
2.524624 -0.403052 -0.909697
0.352917 0.125288 1.261064
3.570568 2.293771 0.320296
2.275808 -1.000286 0.451824
1.254976 1.609612 -1.255225
2.268346 2.973935 0.380839
2.642605 2.729797 -0.428368
3.767892 1.377893 1.291056
0.344207 0.792229 1.580488
2.901963 1.867453 2.030674
0.527534 2.197595 0.817303
3.911586 0.675540 -0.182714
1.795127 -0.942919 0.077683
0.097526 1.072285 1.265225
3.537447 2.143069 -0.011405
0.789153 1.398439 -1.019468
3.393739 2.326451 0.059039
0.254259 1.950240 0.375987
3.425859 -0.231429 -0.075037
2.014770 1.174041 -1.517751
3.290230 -0.469921 0.281799
2.056504 2.188729 2.068312
1.279094 -0.459878 1.601602
2.506076 0.230737 2.255537
1.833991 3.052572 0.606364
3.261626 2.514090 0.339158
2.937558 1.874400 2.061842
0.698293 1.629512 1.776963
0.995352 -0.014973 -0.862862
1.474770 1.798594 2.245216
1.825040 2.518019 -0.820839
0.075031 0.616911 0.942856
2.322786 -0.911592 0.366951
0.193473 1.584439 0.958130
0.851292 0.098940 -0.878596
1.657085 2.397324 -0.978360
3.097099 0.157112 -0.958961
2.154556 -0.769005 -0.517423
0.681911 2.514670 0.542775
0.079999 1.215845 0.216934
1.395924 2.086683 2.024721
0.967389 -0.593733 -0.152464
0.686322 -0.252524 1.389702
3.862719 1.008137 1.175268
1.823950 2.889286 1.194290
1.995193 -0.057270 -1.179070
2.382029 0.107181 -1.238050
1.598063 -0.121607 2.084477
3.042596 1.227411 2.247565
2.264516 0.023358 2.214323
3.213709 -0.551950 0.220607
1.365348 -0.650977 1.516541
3.718005 0.123765 0.970311
0.936793 -0.076348 -0.659798
0.559310 0.844387 -0.858618
3.491014 1.037588 -0.804659
0.803415 -0.082041 1.662287
3.230386 -0.601892 0.663379
3.043797 -0.577929 1.092438
0.709648 1.821853 -0.815342
0.795529 -0.605393 0.527950
2.742187 -0.458340 1.614355
0.426073 0.610998 -0.688124
0.819842 0.898518 -1.077623
1.095625 2.513101 -0.463977
3.375742 -0.272306 1.220334
3.240612 -0.536803 -0.003676
3.677377 0.693194 1.558200
0.045979 0.967001 0.024067
3.808169 1.693253 1.080027
1.177141 -0.440648 -0.617705
3.375282 -0.069351 1.366821
3.632305 2.019322 0.246678
3.017967 0.881009 -1.214011
1.335211 -0.915079 0.210690
1.678633 2.919820 0.887593
1.705598 1.692331 -1.321132
2.112875 1.909130 -1.268411
3.703261 1.815252 -0.186326
2.204019 2.985006 0.654833
2.628897 0.168572 -1.231800
3.638598 -0.134702 0.564414
0.512473 1.981778 1.365239
3.875611 0.414112 0.017702
0.412449 -0.065670 1.164488
3.204586 -0.050727 1.661641
3.057532 1.594461 2.136253
1.483559 -0.162538 -1.019200
3.626216 2.125061 0.478096
2.319740 0.184002 2.337641
2.295685 1.367043 2.457922
2.931930 1.601506 -1.129205
2.152221 2.638688 1.638386
3.657647 0.773881 -0.500982
1.750101 1.092806 2.474354
0.331899 2.033233 0.361095
1.747334 -0.072528 -1.177410
3.033510 1.304592 -1.197139
0.805453 0.523869 2.101956
1.965180 -0.960884 0.166809
2.153589 -0.984098 0.452915
1.630219 1.624568 2.331566
3.419304 0.907308 -0.903053
3.973479 1.440004 0.493421
1.532220 2.566093 -0.658113
0.813384 -0.586692 0.431886
1.047408 -0.745298 0.762435
1.642275 1.936723 -1.212989
2.635238 2.098250 -0.991621
1.618900 0.386320 -1.373226
1.505141 -0.112266 2.125364
2.764127 2.643501 1.313318
0.514159 0.002377 1.208681
0.129512 1.705303 0.153478
0.925742 2.383620 1.409959
1.318208 2.306988 -0.844725
3.156741 2.490224 -0.156392
2.670841 -0.489071 1.686613
1.853141 0.096798 2.297245
1.587789 -0.383132 -0.938557
2.686694 0.057882 2.093542
0.226066 1.925846 0.671121
2.011493 -0.603078 1.662240
1.582544 2.955273 0.708423
2.997927 -0.688516 0.187976
2.535332 -0.393835 -0.714976
3.776312 1.783599 0.045452
1.877829 2.096018 -1.119127
0.698962 1.099325 -1.074094
2.708278 -0.605628 1.500968
2.737856 1.624045 2.282232
3.054772 1.955838 -0.894198
0.346726 -0.189083 0.527385
3.465616 -0.346608 0.868787
1.232016 0.169334 -1.082803
1.255076 -0.629063 -0.468027
2.820341 0.473382 2.276745
2.823143 1.517964 -1.194732
3.759117 0.001242 0.769346
3.779018 1.251991 1.291751
1.272719 0.804138 2.378030
1.114593 2.637300 1.193578
0.929115 1.798225 2.007205
3.045868 -0.583738 -0.246981
1.341333 0.667576 2.399066
2.590333 -0.821476 1.041647
2.770832 2.004188 2.068612
3.515703 2.237989 0.328988
0.012299 1.192081 0.726640
2.575660 -0.426589 -0.750241
3.600498 1.199723 1.592356
2.086403 1.064594 2.441790
0.520751 0.998898 -0.857502
0.686968 -0.324043 1.250908
1.075960 2.444039 -0.570005
1.883854 0.358817 2.393100
2.012507 2.172211 -1.112970
2.210616 2.977155 0.690202
3.276876 0.675959 2.054781
3.959146 1.077449 0.136280
3.014679 2.673692 0.047599
1.481404 0.495575 -1.362956
1.077899 -0.461622 -0.473376
1.949226 1.326949 2.482800
0.405656 2.096928 0.210170
1.801483 2.003826 -1.238394
3.063985 1.678240 2.002655
1.885470 2.889970 0.000907
1.193013 -0.449074 -0.577333
1.158109 2.115546 1.930466
1.281255 -0.677525 1.373122
0.489143 2.237937 0.934388
0.718442 1.909131 1.748031
0.645079 -0.290711 1.258951
2.161512 1.669792 2.396058
1.931934 -0.005345 -1.212607
1.252412 0.802742 2.293102
0.073602 1.418249 0.444639
2.503406 2.914881 0.117409
0.996203 2.428142 1.528027
3.750415 1.924946 0.089145
2.537896 2.614150 1.563163
2.371253 2.367639 1.903027
3.628138 2.188425 0.314843
1.869188 2.669049 -0.575832
3.603808 -0.163606 0.666856
3.924355 1.646947 0.603153
0.255715 1.595209 1.257843
4.039372 1.050033 0.745561
1.986647 2.957397 0.391902
2.422078 2.871300 1.064013
1.178769 1.193329 2.380133
0.335673 0.890374 -0.576072
3.488553 -0.272510 -0.024390
2.167138 2.979559 0.403848
1.311072 2.496870 -0.670994
0.012488 1.098956 0.047106
0.205943 1.829913 0.931612
1.618913 -0.631528 1.572192
2.669249 1.032262 2.308175
1.196184 -0.693009 -0.230712
1.508245 2.336715 -0.843099
2.629520 -0.211403 1.981692
1.530847 2.840301 1.090925
2.802749 2.457984 1.564041
2.562804 2.887066 0.790751
2.868021 1.047413 2.316143
0.979226 2.734635 0.442767
0.194648 0.839044 -0.379192
3.634062 0.092426 -0.288027
0.845446 0.492922 -1.067783
0.237599 1.506201 1.342780
3.097048 -0.700200 0.378506
2.195669 -0.215729 2.061175
3.957995 0.835588 0.564849
2.562055 -0.923738 0.248465
1.172589 -0.782108 0.022592
3.691881 1.897220 -0.084223
2.370057 2.674366 1.624228
2.374291 -0.342164 1.961333
2.345972 2.617680 1.564461
3.304746 0.598289 1.987301
1.821166 2.940966 -0.137422
3.846681 1.565967 -0.184224
0.837718 -0.098025 1.622363
3.569968 -0.197717 0.435811
3.257732 2.479280 0.864302
2.090116 1.403215 2.487715
1.022789 0.510992 -1.218329
2.670885 2.568809 -0.579917
3.405960 0.300010 -0.634680
2.105682 2.079387 2.196512
0.857476 2.711306 0.399301
1.430289 2.480189 1.655749
0.567020 1.898704 1.560690
0.440564 1.653608 1.577066
2.777329 -0.058603 -0.997080
1.626030 2.769207 1.376328
1.672981 1.453053 -1.400855
3.318689 -0.416400 0.169693
1.146374 -0.447376 1.595957
0.225837 1.929648 0.320183
2.690303 1.171941 -1.389205
3.119255 0.645448 -1.155530
1.211007 2.584738 1.451191
0.985057 -0.447677 -0.610239
3.864444 1.605001 0.884133
3.764722 1.798833 0.012643
0.305963 0.020620 0.085404
3.390313 1.353749 1.932513
2.033774 1.022261 -1.445086
3.194521 1.722546 1.925917
0.191079 1.850560 0.431758
3.503732 -0.000839 1.235444
1.151116 0.279064 2.222552
1.490335 1.402661 2.375975
3.477119 1.763426 1.707376
3.961821 1.317787 0.669656
2.914122 2.300992 1.750752
2.785150 0.027660 2.063269
0.326490 1.138751 -0.567097
1.523367 2.384339 1.910679
2.147716 2.894923 1.053426
1.492095 2.218106 2.016229
0.291162 1.439235 1.401937
1.280290 2.832651 0.307196
3.426681 -0.377972 0.610898
1.330256 -0.421677 1.816506
1.419654 0.134624 -1.187484
1.643243 -0.236041 1.961958
2.916187 0.644581 2.250856
2.795913 0.862754 -1.372803
3.573319 0.363804 -0.578286
2.428267 2.727147 1.437852
2.756749 2.098785 1.950614
3.655988 1.989709 0.714337
2.225680 -0.829962 -0.192477
0.360418 0.583374 -0.490957
0.752135 0.992627 2.097417
3.156850 -0.327259 -0.505336
3.563763 -0.175237 0.176937
3.223172 -0.468854 0.733891
0.402647 -0.094829 0.920624
-0.019324 1.187497 0.483971
2.640299 1.428539 2.327988
2.801614 -0.765478 1.015066
3.978139 1.547157 0.608352
1.345635 0.046871 -1.114929
3.705736 0.178056 -0.074576
0.512767 2.229048 -0.015354
3.901087 0.342442 0.801162
1.061016 2.533059 -0.380936
2.465461 2.643295 1.546526
0.558770 -0.410046 0.885948
1.757530 1.751936 2.330932
1.509865 -0.984168 0.394429
3.666760 0.779239 1.550723
3.872941 0.729714 1.084233
3.973137 0.909370 0.262970
1.388529 -0.641472 -0.449244
0.258521 0.776095 -0.574769
2.628824 -0.817969 0.870449
3.044860 -0.670794 0.817609
3.237469 0.169216 1.876189
3.314149 -0.546663 0.352443
3.387850 1.432571 1.879347
0.888076 0.960655 -1.157904
2.132777 -0.544132 -0.749859
3.196493 2.433124 1.244136
0.769691 0.446328 1.937121
1.826327 2.991633 0.850377
3.260946 -0.404676 1.225001
1.559193 2.060762 2.061019
1.540556 -0.197886 -1.031655
2.605961 0.140921 -1.237566
1.902516 3.012572 0.492354
3.930331 1.509964 0.305225
3.938337 0.770188 1.030776
2.719739 0.009898 2.127621
1.956072 -0.602386 1.615763
0.037981 0.678315 0.496884
3.688283 2.054005 0.422921
2.654080 2.760488 1.117415
2.291861 -0.517463 -0.766453
1.421174 -0.821328 0.020629
1.854203 2.957527 0.252346
2.449900 1.139410 -1.418813
0.766568 0.632453 -1.070552
2.305913 2.570210 1.689895
1.321125 2.926462 0.697727
1.416776 -0.707637 -0.324017
0.198282 1.437598 1.233825
1.822752 1.665376 2.359475
2.779222 0.179904 -1.167286
3.365014 -0.424043 0.204062
1.269104 -0.791747 0.901534
2.608450 0.651571 -1.425941
1.216828 1.355042 -1.280875
2.615339 1.038871 2.419835
2.360774 -0.235030 2.012411
1.630581 0.864430 -1.466194
1.436114 -0.900719 0.127330
3.437842 0.190286 -0.661782
3.796974 1.033080 -0.365119
3.012870 0.645902 2.185430
2.676628 0.706885 2.331979
0.548714 2.222043 1.136367
2.954296 2.755207 0.558270
0.579225 1.576382 -0.696575
3.981178 1.465727 0.097679
2.438353 -0.538038 -0.719273
3.491411 0.502008 -0.709705
2.445349 2.704801 1.505435
3.150114 0.370600 -1.024740
3.992314 0.957565 0.191123
3.645211 2.002102 1.153679
3.879065 0.818516 1.313428
1.966032 1.329286 2.446430
2.650933 1.921744 2.168878
1.729175 -0.253656 -0.995983
0.472001 2.073238 -0.185573
1.299224 -0.323087 1.798018
2.935551 2.454904 -0.325242
0.923683 2.209372 -0.677427
3.594921 1.830439 1.329399
2.645846 2.953758 0.716177
0.243066 1.224191 -0.342287
1.169202 1.642062 2.193286
1.904190 1.363995 2.476670
1.852744 2.982717 0.934109
0.098978 1.421446 0.869022
3.605833 2.262376 0.303378
0.452377 0.417558 -0.594838
1.286209 1.574768 2.266034
2.880680 -0.656197 1.185214
3.901307 0.391145 0.327856
2.322238 -0.536752 1.814161
1.645711 1.803036 -1.292194
0.815742 2.354109 -0.306839
3.913195 0.909822 0.704651
2.998561 -0.011714 -0.946214
0.307959 1.940139 0.005675
3.913097 0.939892 0.650688
2.687100 2.336665 1.813550
3.175118 2.401848 1.234864
3.387215 0.325249 -0.795720
2.072314 0.332398 -1.340467
2.890977 2.804650 0.701984
3.767595 0.040563 0.307161
1.685326 -0.980633 0.406523
1.547052 2.787887 1.237865
0.932600 2.422563 1.504725
3.051523 0.736462 -1.168373
1.526883 1.932418 2.206926
3.618828 0.747782 -0.612619
2.529529 -0.945380 0.906126
1.932408 0.463283 -1.452436
2.824838 0.359393 -1.175193
0.376068 0.718610 1.542901
3.842941 0.853832 -0.188825
3.160250 -0.577204 1.075555
2.767553 2.849687 0.346267
1.909015 -0.460765 -0.849749
1.415557 1.630295 2.310738
0.711165 2.552649 0.154724
2.060419 0.361084 -1.465021
3.217358 2.456129 0.083681
1.954854 1.633684 -1.385563
1.168097 1.874408 -1.127526
2.750083 -0.694201 1.086608
2.217601 -0.617106 1.640706
0.970585 -0.683577 0.925714
3.738176 -0.031332 0.611194
2.759776 2.804731 0.898679
1.518958 -0.906700 0.693621
1.608449 -0.981523 0.775637
2.942354 -0.535419 -0.282942
2.242171 3.032681 0.587498
1.110662 0.621035 2.272512
1.130133 -0.585944 -0.337308
0.904375 0.959561 2.225104
3.421506 0.294548 -0.680056
0.093783 1.722538 0.388412
1.528606 2.931230 0.711238
1.085687 0.196987 2.082069
2.404866 -0.638423 1.587464
1.152679 2.477457 1.486353
1.024262 2.785054 0.613219
3.196611 1.985042 -0.766150
0.725837 2.432714 0.036692
1.609634 -0.783084 1.218069
3.869150 0.405039 0.525222
3.872779 1.225603 1.156897
0.095484 1.378845 0.174178
2.485492 1.873723 2.205646
3.477098 2.177315 1.057366
0.575739 1.862541 -0.472270
1.958648 2.586814 -0.707332
2.980507 2.756659 0.421664
0.449278 0.275570 1.518512
2.232358 -0.783914 -0.397596
3.409665 2.319010 0.033694
1.447809 0.158707 -1.260504
3.593620 0.922263 1.717895
3.348646 2.357062 0.079992
2.816280 1.015003 -1.336350
2.618346 -0.326393 1.877979
0.343975 1.432413 1.448847
1.060123 2.317441 -0.696666
3.375097 -0.473400 0.672499
3.876585 0.466513 -0.094756
3.463307 1.810381 1.618400
2.524097 2.035511 2.122958
3.073973 0.552748 2.142708
3.766264 1.200772 -0.427057
2.950891 1.040822 -1.228468
3.789268 0.248511 0.334353
2.703354 1.616876 2.298559
0.495697 2.194715 -0.294450
2.888423 2.137882 -0.912092
3.563400 0.522005 1.672102
1.996398 2.944825 0.308174
0.583809 0.661946 -0.846961
3.076705 -0.333133 -0.488574
0.884758 1.667598 2.029899
1.303493 -0.707225 1.191905
3.694898 0.089894 0.826042
3.582511 2.238310 0.807420
2.984568 -0.696478 0.910793
1.672540 -0.830797 0.953441
3.637090 1.141769 1.639799
3.029762 2.150023 1.745096
2.801390 1.161287 -1.277236
1.946151 0.260838 2.360855
1.372912 1.319043 2.390812
1.706018 2.893883 -0.179789
2.432243 0.050040 -1.220351
0.385658 0.595386 -0.671888
1.399762 -0.860537 0.434056
0.150743 1.551215 0.599827
0.309742 0.304537 -0.428830
2.108784 2.176966 -1.079610
2.409125 0.677531 2.374571
2.837978 -0.626255 -0.285057
0.577586 2.391867 0.525017
4.478144 0.953417 1.839459
4.779305 2.535128 -0.566368
4.147508 2.282258 -0.573060
3.547332 1.376983 0.871689
4.477711 2.200786 1.749546
6.038976 0.510589 0.102935
5.699102 2.288277 -0.514435
5.429161 0.133617 0.532298
6.283906 1.141975 -0.020100
5.792257 0.364038 -0.070678
6.097231 0.632670 0.110834
6.045092 2.450865 0.928324
3.791097 2.442189 0.151242
6.106969 0.624395 0.089727
3.796948 1.258720 -0.427558
3.482314 1.558926 0.827360
6.262597 1.040377 1.109738
5.590401 2.307891 -0.671956
5.295526 3.032687 0.508494
3.925821 1.388273 1.583671
4.567091 0.232196 1.159177
5.028171 2.505432 -0.571849
5.936521 2.647700 0.265910
5.117098 2.722887 1.451990
3.595365 2.153100 0.426004
5.489603 2.221223 -0.736672
6.022993 1.664957 -0.466905
4.485433 1.649658 1.916180
5.292870 1.122631 1.887221
5.015718 2.991407 0.314932
5.298915 2.425858 1.650568
5.962763 2.656444 0.125679
4.139861 1.800385 1.657903
4.663885 2.385013 1.716494
4.057235 0.299961 0.316895
5.383410 1.025671 1.792074
5.359846 1.628229 -0.934009
4.172752 1.572280 -0.760850
5.449580 1.491157 1.945413
6.470901 1.631324 0.386087
5.336368 2.579827 -0.435608
3.689364 0.793117 0.923274
5.258050 2.543367 -0.574989
3.545301 1.813496 0.000657
3.603003 1.390719 1.042562
4.911695 0.086294 0.011226
4.788029 0.212922 -0.132081
6.077790 2.527683 0.890950
4.359666 1.250004 -0.799250
4.918176 2.555680 -0.533182
4.254464 1.762498 1.816662
4.747915 0.988655 -0.927066
4.767466 3.027315 0.700749
4.621194 2.948951 0.447708
3.731416 2.391750 0.788203
5.141167 0.674533 1.721679
5.818521 1.006494 1.635488
4.497116 0.435951 -0.462102
3.878431 1.548816 -0.580235
4.439260 0.079103 0.446976
4.881049 1.087977 -0.868707
3.613359 1.834138 -0.121963
5.678654 0.156787 0.819276
6.194555 2.323033 0.076460
6.186451 0.709420 0.567297
3.862223 0.747572 1.245738
4.349948 0.649484 -0.554045
3.937641 0.415886 0.647702
3.556117 2.040206 0.512397
3.556464 1.749704 1.047143
3.819570 1.839220 -0.401408
5.175494 0.667425 -0.801240
4.008453 1.011070 -0.542785
3.664882 0.807356 0.762587
4.760581 1.900690 -0.892796
6.127207 0.702382 0.951235
6.182961 2.315705 0.242649
4.407692 2.287856 -0.652482
4.107951 1.019907 1.707083
5.675731 0.279055 0.078025
4.447776 0.617434 1.497651
3.913655 2.439761 0.994845
6.378325 1.229470 0.355141
3.748421 0.804723 0.964130
6.208325 0.809088 0.159234
5.017294 0.167275 1.080927
3.835279 0.963247 -0.275922
3.504422 1.252381 0.060410
4.538006 0.140164 1.066651
6.227838 1.802856 1.311990
3.849922 1.462729 -0.444943
4.068140 0.771583 1.378372
5.689213 1.894904 -0.752737
4.024356 2.475504 1.147263
3.708037 0.640643 0.436154
5.505671 0.180509 0.377772
4.908801 2.678248 1.442070
5.398428 1.042462 -0.862973
4.524253 2.327626 1.675248
5.960259 2.411462 1.142193
4.508320 1.323373 1.920964
3.982806 2.635522 0.182827
6.132490 0.676833 0.911939
4.563157 0.116071 0.672461
5.835451 1.043323 -0.615245
4.738891 1.260029 1.953574
5.660905 1.544087 1.821736
5.262657 1.234743 -0.971232
4.661674 0.944757 1.804478
5.721565 0.255273 0.700528
5.264134 2.808057 1.234916
6.246024 1.838076 1.171765
6.143170 0.682176 0.199352
4.129659 1.770478 1.699335
4.858878 0.001959 0.199395
6.025161 2.414383 1.067912
4.901800 0.097383 1.047970
4.162263 2.805949 0.814908
4.130650 0.246163 0.352761
4.390279 2.875505 0.767206
4.176748 2.819608 0.507037
6.150296 0.848912 1.011443
5.315702 0.546923 1.593496
6.049725 1.424537 -0.453450
5.951747 1.932928 1.566116
5.011388 2.043770 1.894280
5.565886 0.767397 1.591360
5.361810 2.894939 0.110756
5.362914 0.148171 0.879510
4.409751 2.737619 -0.038899
4.021310 1.008323 -0.612838
5.709672 0.214157 0.516238
3.928323 1.149325 1.439089
5.742915 0.264273 0.442864
4.866106 2.058495 -0.882218
5.526860 0.100919 0.156402
3.927697 2.538660 0.575529
3.942665 0.480895 0.647231
4.923894 0.370947 -0.477394
6.300092 0.815904 0.340513
6.075735 1.046697 -0.404700
6.223382 0.773264 0.009548
4.346893 1.194791 1.838369
5.517282 2.326001 -0.656940
4.614277 0.121265 0.122384
6.104072 2.375139 0.243927
5.124973 0.073697 0.937914
5.782972 0.264102 0.684179
6.178473 1.209476 1.436787
6.401415 1.692135 0.690485
3.683832 1.593297 1.295419
5.455571 0.099859 0.738501
6.022189 2.071630 1.289587
4.275730 2.807755 1.038775
3.899076 1.624199 -0.571719
3.581442 1.656926 1.094577
3.734399 2.244592 0.988965
4.581380 0.086566 0.344642
3.822852 1.585586 -0.477845
3.584472 0.968372 0.287896
5.456784 1.099597 1.827992
3.558614 2.087298 0.405689
5.810638 1.731528 1.627666
4.789534 0.574055 1.681328
4.742106 1.705110 1.983945
3.729056 1.939251 -0.133110
4.807867 1.601378 -0.994601
4.043079 2.502906 1.272895
4.527091 2.391156 -0.646359
6.338488 1.596483 0.723012
5.878857 1.113437 1.659122
3.782859 2.402376 0.226551
5.056042 0.012331 0.171151
3.778813 0.588251 0.334919
6.297786 2.068151 0.896725
4.317078 0.841393 1.686906
4.157232 2.772446 0.271582
4.764686 2.471355 1.578256
4.848062 0.064847 0.331020
5.181420 3.023066 0.573601
5.183353 2.977063 0.819142
5.186548 0.819274 -0.767235
5.848697 1.492555 -0.734703
5.234541 1.494866 1.964962
5.187832 0.671707 1.710551
4.364281 2.492276 -0.445514
3.432413 1.510750 0.504985
5.422705 1.391120 -0.978219
4.105250 2.645409 0.056868
4.488587 2.659544 -0.378200
3.606463 1.132719 0.073633
3.630303 1.057835 1.152197
4.949088 1.793208 1.986135
4.114994 1.971496 -0.584484
4.043682 0.587220 -0.085149
4.909187 2.930280 0.068478
3.933198 1.162565 1.543087
4.988564 2.205750 -0.804155
3.708466 1.023957 1.150242
4.471236 0.117725 0.714060
5.357031 0.458036 -0.520614
3.679269 1.434754 -0.284989
5.440890 0.119221 0.108772
3.676789 0.987417 -0.120073
5.776288 0.299829 0.548088
5.088408 3.026499 0.144097
5.260024 0.692425 -0.683172
5.814848 1.742739 1.710878
4.033851 1.695351 1.711575
6.010137 2.485212 0.507916
3.672273 2.236510 0.091449
5.505433 0.397261 -0.372866
6.055661 1.408153 1.576821
5.151428 0.214919 1.189910
3.869785 2.482220 0.544628
4.078530 1.459618 1.771027
5.546707 1.525180 1.903246
5.213283 1.837625 -0.921711
5.012740 2.744106 -0.425876
6.236981 1.744483 -0.274241
6.155959 1.415196 1.374788
4.303418 1.253565 1.776104
5.335524 0.304278 -0.202895
6.245930 1.579006 -0.276066
4.309865 0.803847 -0.586994
4.943797 0.681509 -0.797186
4.816032 1.798059 2.023525
3.772423 2.175162 1.186302
3.653508 1.615660 -0.250513
4.834741 2.912332 1.053822
5.506717 1.218272 -0.873317
4.610426 2.401379 -0.648127
3.821624 1.456623 -0.512538
4.287620 0.990786 -0.746126
4.005530 1.967684 -0.631275
3.797304 0.874156 1.062234
4.638609 0.046144 0.662587
3.454520 1.677419 0.783946
4.400071 2.370520 -0.555679
6.296424 1.972609 0.064431
4.949114 1.391155 1.971187
4.123026 0.728684 1.403209
4.427795 2.154983 1.741621
4.358674 2.167014 -0.753563
6.173982 2.069823 1.253297
4.633519 0.131302 0.890506
3.655803 1.110002 1.101963
4.851784 2.845200 1.216303
3.490107 1.319441 0.393622
3.863728 0.539175 0.070563
3.543011 1.280408 0.294734
3.542667 1.624386 1.089537
5.544448 0.903362 1.749495
5.738854 2.084581 -0.585904
4.996686 2.816258 -0.108531
6.426489 1.444980 0.517853
4.388253 1.615281 -0.915996
4.535292 0.081364 0.625634
5.456314 1.972500 -0.846346
6.243809 2.000785 -0.002029
5.247742 1.942722 -0.965883
5.608377 0.410675 -0.324653
4.559083 0.118871 0.636438
5.632242 2.366641 1.554804
5.520259 0.874123 1.622777
4.022085 0.588295 -0.278291
5.838949 2.614344 0.966164
6.177924 0.869669 0.921791
4.442415 2.972164 0.287928
4.313121 2.155404 1.675757
4.207766 1.318897 -0.781101
3.469440 1.350271 0.804910
5.408902 0.078518 0.228651
3.702056 2.075330 -0.077778
5.829756 2.527830 -0.230078
3.739887 1.629970 -0.358247
5.132168 1.135154 -0.936788
3.493492 1.407126 0.060909
4.264689 2.148842 1.676733
4.486938 0.633779 1.641251
3.560933 1.476006 1.098651
5.674399 0.282080 -0.006690
3.651711 1.462012 1.165846
6.402589 1.302885 0.037772
5.964118 1.968262 1.583196
5.288974 0.636956 -0.658303
3.732275 1.784023 1.406484
6.050980 2.257900 1.254144
4.577051 0.320825 1.325912
5.994069 2.016028 1.517152
5.017078 2.610483 1.546138
5.441257 2.735052 1.185209
4.450663 2.124004 -0.802329
6.109703 0.603903 0.770468
3.598530 2.146803 0.431829
3.530948 1.604918 0.024933
6.346237 1.758851 1.106889
3.956670 0.621213 -0.053445
5.320229 2.853394 -0.117492
5.721023 0.421850 -0.180867
4.491281 0.496838 -0.507317
6.107101 1.121704 1.477418
5.886475 2.120084 1.494630
5.085970 0.402468 1.533384
4.355139 0.161252 0.294724
3.795128 0.788129 0.970515
5.676581 0.378227 -0.140687
5.566440 1.933553 1.842163
5.619045 2.405252 -0.483180
6.176286 1.693049 -0.372783
5.002284 2.817591 1.180494
3.812675 2.176047 -0.224710
5.900377 0.605363 -0.255270
5.558665 0.920799 1.746101
3.652704 0.820048 0.785428
6.451919 1.514902 0.393660
5.376926 1.334168 2.004356
5.584436 2.448977 -0.413484
4.857218 1.061826 -0.868747
5.648793 0.693901 1.522398
4.059006 2.579706 -0.122524
5.085019 2.791975 -0.302013
5.716748 0.687205 1.520181
5.207249 0.196497 -0.178060
6.060322 1.041453 -0.405829
4.975519 0.712910 1.755091
3.955971 2.579561 0.867456
3.760275 1.287484 1.430600
4.588547 2.643840 1.467887
5.899030 1.243464 -0.564038
3.763013 1.664765 1.421923
3.467158 1.225522 0.633188
4.426278 2.807209 0.982717
6.135650 1.536916 1.340701
5.818320 2.533898 -0.177448
4.556342 0.639769 1.637761
6.075334 0.547583 0.606883
3.635237 2.100069 0.206661
5.106042 1.130102 1.907941
3.520830 1.274224 0.437228
4.363337 2.710787 -0.128677
5.649841 1.983503 1.759238
4.384794 0.710743 1.653155
5.553533 0.215637 -0.057009
5.225364 2.641729 -0.385268
3.564972 1.483816 -0.080019
4.338741 0.220496 0.784893
5.133888 1.267220 2.001496
5.216002 2.645303 -0.461175
5.179114 -0.015762 0.299414
4.156201 2.822304 0.568200
5.257752 1.984274 1.844775
4.698518 0.104383 0.840057
4.040643 2.669151 0.213308
4.253475 0.717719 1.511370
4.945979 0.948069 1.879770
3.790567 1.345817 1.409684
3.677807 1.665300 -0.362243
5.912885 0.692926 1.251017
5.918301 2.604805 0.773550
4.865513 0.893662 1.855296
4.402299 0.330159 1.279361
4.466987 0.631615 -0.625974
3.727993 1.077632 1.139494
6.127751 2.474919 0.209904
4.653222 2.059145 1.913421
5.233681 0.912835 -0.810524
3.552959 1.886575 0.970958
5.568022 1.492879 1.920816
4.075789 2.686496 0.488509
3.878842 2.315369 1.128844
6.319800 2.102477 0.324460
6.169324 2.392608 0.811440
4.880867 2.845312 1.180485
5.312931 0.142086 0.148581
3.490642 1.352286 0.270837
6.140334 1.720432 -0.379912
5.132961 0.212995 1.155505
5.071218 2.710086 -0.458413
5.242015 0.201531 1.154757
5.864695 2.652240 0.450855
5.064616 2.996189 0.234589
5.261032 0.366248 -0.420264
4.845936 2.979509 0.196754
4.629523 0.570660 -0.634750
5.327983 0.438894 1.497740
4.237881 2.122285 -0.695816
5.789940 2.662864 1.107510
3.970225 1.611744 -0.589306
4.463777 2.623529 1.439903
5.193703 0.253106 1.392462
5.198212 0.125559 1.014071
4.727148 2.576080 -0.502362
3.414816 1.373445 0.643926
4.290491 0.915578 1.771484
4.323964 2.539349 -0.459790
3.487332 1.147784 0.305063
3.773967 1.003264 1.285669
4.972018 0.151555 1.020089
4.143512 0.256169 0.931411
5.430169 1.547775 -0.881394
4.413647 1.197098 -0.906936
4.202206 1.966830 1.710638
4.568085 2.022162 -0.838028
5.998309 0.642584 0.948207
4.505823 2.729690 -0.247302
6.331334 1.153028 0.091844
4.898923 0.034115 0.474391
4.355360 2.749054 0.992848
5.583117 2.487250 -0.465381
5.911260 0.562533 1.045027
5.638509 0.171075 0.557530
4.667098 0.716314 1.739922
4.232961 0.180177 0.662991
5.704310 1.474176 1.756770
5.591450 0.209921 0.127147
4.635892 1.738661 -0.936213
6.338919 2.052374 0.595760
5.339284 2.935033 0.934242
6.412903 1.980326 0.289705
4.567313 0.362687 -0.351046
3.963915 1.270870 -0.697346
6.114909 1.491894 1.416209
4.511950 2.826880 1.079313
3.612575 1.540655 -0.121239
4.314824 0.232960 0.846661
4.123610 2.311525 1.455067
6.294646 1.008670 0.921570
5.911635 1.040334 -0.563367
6.264414 1.896971 1.025666
4.403373 0.224680 -0.048800
5.053216 0.041389 0.453832
3.946086 0.578208 0.937602
5.721257 1.213627 -0.729068
3.776750 0.822619 1.254378
5.883094 1.187811 -0.606989
5.603730 0.383694 -0.238097
6.098771 2.568759 0.659457
3.736543 1.512947 1.485455
4.467494 2.567208 1.542476
6.293707 2.049841 1.002067
6.143232 2.150599 0.055705
4.409195 1.679977 -0.927094
4.795783 2.224659 -0.865645
5.971756 2.553614 0.165859
5.561591 1.656297 1.882022
6.050811 0.503810 0.935762
4.523568 1.562960 -0.979748
5.997550 2.408673 -0.041305
3.686944 0.878461 0.942376
5.003779 2.778198 1.281630
5.756097 1.891693 -0.779344
4.438369 2.941062 0.490316
5.649324 1.260336 -0.804353
4.597240 2.148940 -0.901331
4.885599 0.607119 1.642712
4.624489 2.482751 1.575933
5.028628 0.803916 -0.884676
4.173256 0.550711 1.373521
4.990544 1.815306 -0.980407
3.671883 2.185159 0.785113
4.733099 1.998119 1.900115
3.845372 1.641612 1.425948
6.228722 0.760629 0.801214
4.621569 2.429757 -0.632251
4.907071 1.898784 2.009299
6.075235 0.719100 -0.038745
4.832456 -0.026038 0.286983
5.712943 0.575913 1.343739
5.998218 0.440900 0.223065
6.208846 2.333777 0.482370
4.247969 1.557913 -0.842710
3.664268 2.307502 0.579264
5.647818 1.598641 -0.760799
4.976777 0.668347 1.747218
4.012503 0.367055 0.103756
6.015249 1.707100 -0.525312
6.011924 2.391378 1.024867
5.102581 2.609829 1.515197
4.108462 2.725027 0.810811
5.603186 0.163963 0.411945
4.019605 2.229188 1.530538
3.657775 1.292588 1.289397
4.370188 2.720932 1.111622
5.409546 1.228880 -0.911283
3.616131 2.103673 0.513212
4.757157 0.318732 -0.371928
5.941117 1.459349 -0.652367
6.440814 1.410213 0.593847
6.390393 1.738933 0.725878
3.710979 1.073277 1.139156
3.452673 1.409766 0.569240
4.782726 2.916924 0.950989
6.272672 0.911808 0.612820
5.214518 0.427690 1.503636
6.383405 1.717053 0.872597
5.094957 0.987512 -0.864947
4.770890 0.533163 1.619689
4.853142 0.938402 1.866263
3.850242 0.466470 0.530815
6.168098 2.389060 0.830711
4.967064 2.852028 1.173529
3.891705 1.369803 -0.607738
5.033843 1.187549 2.013287
5.145507 0.074450 0.389440
5.101336 2.892446 0.098520
3.874490 1.881712 -0.411331
3.804709 0.563980 0.274209
6.087199 0.648011 0.093531
4.586489 2.724746 1.286107
5.339674 2.865412 1.080458
5.606723 0.199257 0.560171
5.465033 2.593776 -0.445275
4.114709 0.507126 1.313551
6.126052 1.324312 1.395240
5.778297 0.920700 -0.627953
5.361089 1.819207 1.872302
3.762115 1.965020 -0.223120
3.478292 1.188416 0.736923
6.384323 1.764843 -0.037876
5.436748 0.104397 0.449112
4.797455 2.462188 1.678135
4.179308 1.134995 -0.738642
3.974113 1.588561 -0.606239
4.712918 0.261247 1.221822
5.990283 1.028242 -0.430508
4.263269 1.434392 1.760535
4.002613 0.845316 1.380636
5.831624 0.332397 0.211441
5.297858 0.871475 1.815657
3.869153 1.284497 1.514993
4.791785 0.056662 0.167266
6.149963 1.342401 -0.423763
6.274600 1.322731 -0.244296
4.984740 1.987298 1.945819
5.577477 2.848324 0.038588
3.504433 1.401127 0.664311
3.620584 1.082832 1.036837
5.528854 2.756328 1.136351
4.482960 0.917827 -0.783382
6.487056 1.753060 0.295808
4.294199 2.810444 0.018242
4.093459 2.082751 1.528482
5.419108 2.867769 0.844310
3.652578 0.915006 0.956935
6.232794 0.930110 1.123044
4.946057 2.974383 0.345708
3.835918 2.214465 1.206824
6.240975 1.713148 -0.287283
3.569214 1.926972 0.816442
3.909199 0.665352 -0.051813
3.992856 0.744637 -0.386300
4.719236 0.865096 -0.772227
6.029922 2.519483 0.051134
5.160252 2.053264 1.890792
3.913042 2.456645 -0.064987
3.928316 1.829844 1.507288
6.341995 1.101600 0.892372
4.497771 2.174044 -0.761531
3.891697 0.554338 0.575111
4.146471 2.144645 1.594144
5.198118 2.943099 0.788140
3.850058 2.347486 0.030056
5.481231 2.878001 0.915745
4.008360 0.754131 1.422941
4.543403 1.686137 1.954556
6.163751 2.236758 0.091366
4.308302 2.633877 1.268699
4.383990 2.880508 0.269098
4.256870 0.556736 -0.466112
4.441539 2.689787 -0.266666
5.535638 0.287663 -0.047070
3.595395 1.051824 0.285903
5.531948 1.864559 -0.873385
6.319055 2.045677 0.805477
5.113078 0.145836 1.100299
5.566126 0.260103 0.069942
4.590318 1.787725 1.938581
3.979620 0.643658 -0.250528
4.000374 0.882701 1.533079
4.042251 1.690490 -0.746113
4.489440 1.169098 1.912404
5.041726 0.332738 -0.463119
4.776891 2.808420 1.304100
4.882367 2.898210 -0.137871
5.731297 0.492409 -0.179136
3.510483 1.025103 0.470215
5.112629 1.666174 -1.025709
4.986693 0.401723 1.562295
4.755355 1.078273 1.911501
4.171618 0.519449 -0.326006
4.717522 2.286318 1.802292
6.258045 0.734236 0.750651
4.273639 0.533959 -0.423078
4.129050 2.574007 1.105475
4.828864 2.450486 -0.554985
4.428181 0.112939 0.108311
5.828704 2.317441 1.451753
3.577428 2.032594 0.732515
5.709499 0.304269 0.683154
