ply
format ascii 1.0
comment reference
element vertex 1200
property float x
property float y
property float z
end_header
1.257040 -0.335850 1.543489
1.908931 -0.354558 -0.347967
1.745808 0.859761 -0.564054
1.300354 -1.102231 -1.088762
0.235399 -1.452028 -1.341388
-0.963639 -1.752170 0.502035
-0.821169 -1.296977 1.311295
-0.310381 0.086777 -1.992691
-0.846828 0.186838 -1.833866
1.023058 -1.570877 -0.760878
-0.596647 1.909105 0.014734
-1.158403 0.889175 -1.336162
0.141458 -1.645913 -1.118738
0.496445 1.881831 0.381136
-0.169305 -0.395159 -1.949246
-1.089920 -0.639756 1.529333
0.405607 -1.919054 0.335732
-0.724463 -1.402938 1.262932
1.300407 1.127398 -0.992303
-0.582429 0.624589 1.821670
-0.789652 -0.280070 -1.790070
-1.259193 0.858809 1.318304
-0.103731 1.911086 0.643775
-0.768372 0.390366 1.796053
-0.032721 1.048837 -1.677638
1.912119 0.181212 -0.686671
0.041176 -2.009982 -0.190531
0.493098 1.803054 -0.663058
-1.225437 -0.751619 1.362294
0.826897 -1.326204 1.270709
0.178152 1.614278 -1.182946
-0.426035 -0.508546 -1.899315
1.492357 1.370444 0.042732
-0.322678 -1.872470 -0.572723
-0.737386 -1.797481 -0.366805
0.430654 1.900546 0.146466
0.230053 -0.072563 -1.928784
0.045419 0.068027 2.014312
-1.124612 1.661974 -0.216821
-1.317707 1.265297 0.821672
0.796035 -0.960965 1.484785
-1.044464 0.502471 1.615656
-1.805601 -0.997460 0.207042
-0.558333 -1.937451 0.098935
-1.446982 0.635686 -1.160951
1.710005 -0.879318 -0.350661
1.122465 -1.646083 0.313976
1.245073 -1.537527 0.167230
0.368372 1.041011 -1.653253
-1.821449 0.753405 0.407924
0.570509 0.900476 -1.720360
0.556479 0.709080 -1.730676
1.584279 0.512748 -1.020795
0.935072 -1.379859 1.121514
1.366139 -0.937263 1.139617
0.394306 0.773994 1.795009
-0.417760 -1.231221 -1.475348
-1.926401 -0.154049 0.774528
0.633811 1.884837 0.063533
0.967553 -0.194181 1.769710
0.800844 -1.178471 -1.439419
1.109798 -0.473439 1.619471
0.994704 -0.134247 -1.760206
-1.673447 -0.473071 0.976015
0.371287 -1.931609 0.282027
0.821387 -1.811286 0.288434
0.092197 -1.928767 0.576517
0.691503 1.320110 1.298350
-1.636389 -1.068874 0.590555
0.237569 0.282502 1.993398
0.670238 1.406225 1.177535
1.214104 -0.576382 1.441654
-1.647317 -0.562475 -1.010531
0.017862 1.557836 -1.246955
0.796995 -1.816281 -0.610597
1.425775 0.137852 -1.368476
-1.159100 1.092468 -1.165717
0.599921 0.146743 -1.878683
1.453262 0.503084 -1.330917
0.325238 -1.209336 1.503660
-1.695099 -0.254668 1.051100
1.145765 -1.606843 -0.407292
-0.489262 -0.673310 1.808857
0.507331 -1.540292 1.113263
1.492421 0.726582 -1.123019
-0.657639 1.642004 -0.898937
0.697601 1.209639 -1.414983
-0.039138 -1.895019 -0.605711
-0.236049 -1.222983 1.503930
-1.908331 -0.543258 0.201874
1.258988 -1.188324 0.995339
0.024784 -1.827932 0.842402
0.644245 -1.850748 0.215249
-1.008572 0.293173 1.727978
1.038498 -0.913193 1.438415
-1.946261 -0.163729 0.571091
0.773317 -1.700289 -0.573042
-0.851729 -1.010321 1.449178
0.631038 -1.166513 1.531639
0.540560 1.468323 1.197979
-1.316382 -0.924218 1.170736
1.996697 -0.102901 0.426602
1.664659 -0.764112 0.714520
-0.337179 -0.398813 1.925785
0.946897 0.901963 1.517896
0.040650 1.812870 -0.857748
1.711477 -0.723699 0.607482
0.535683 -0.704674 1.792657
-1.027757 -1.224827 1.148489
1.366323 1.072269 1.079468
-0.014045 -1.992127 0.188540
-1.114379 1.619663 -0.263070
-1.686170 -0.611186 0.807814
-1.142623 -1.597416 0.476429
0.672609 -1.373843 -1.290035
0.273016 -1.472837 -1.409697
-1.773953 -0.575410 0.761064
1.771368 1.001389 -0.179704
-0.075728 -2.017790 -0.048176
-0.627848 0.729723 -1.755225
0.607040 1.897349 -0.119161
0.933219 1.591930 -0.928368
1.806654 0.065161 0.791056
-1.666716 0.082911 1.080488
1.038892 0.697650 1.530674
-1.242136 1.435092 0.317303
1.826202 -0.651474 -0.682714
-0.539145 -1.877826 -0.422317
-1.861018 0.401548 0.765225
1.712581 0.858728 -0.511405
-1.123263 0.602647 -1.519468
1.602901 1.064279 -0.440961
-1.554212 1.238949 -0.124013
1.190362 -1.460319 -0.575037
0.044767 0.168832 -2.017751
1.015380 -1.671636 -0.218201
0.262066 1.160857 1.568312
-0.963459 -1.312515 1.101602
0.364806 -0.845455 1.755537
0.192938 2.050216 0.106364
1.505378 1.272009 -0.160842
1.075152 0.698311 1.561842
-1.172618 0.845987 1.276963
-1.165634 -0.825098 -1.362862
-0.378576 0.877667 1.745216
0.091300 1.525339 -1.320839
-1.962247 -0.043002 0.442856
-0.014063 -1.938602 -0.133049
-1.677595 0.889260 0.458130
-1.287724 -0.687900 -1.378596
-0.095062 1.435642 -1.478360
0.934065 -1.020591 -1.458961
-0.154976 -1.768968 -1.017423
-1.035045 1.720542 0.042775
-1.853350 0.545970 -0.283066
-0.406198 1.175070 1.524721
-1.293672 -1.390210 -0.652464
-1.511219 -1.005378 0.889702
1.835833 -0.315444 0.675268
0.154696 1.891154 0.694290
-0.188327 -1.040373 -1.679070
0.221189 -0.945594 -1.738050
-0.590596 -1.034772 1.584477
1.066246 0.042911 1.747565
0.090905 -1.007738 1.714323
0.925777 -1.739130 -0.279393
-0.911699 -1.515689 1.016541
1.539748 -1.161251 0.470311
-1.233960 -0.875372 -1.159798
-1.445824 0.096924 -1.358618
1.474889 -0.221895 -1.304659
-1.366300 -0.857818 1.162287
0.933528 -1.791209 0.163379
0.753935 -1.735210 0.592438
-1.128035 1.033435 -1.315342
-1.464946 -1.371849 0.027950
0.477673 -1.565064 1.114355
-1.617565 -0.109782 -1.188124
-1.179850 0.104992 -1.577623
-0.627888 1.647157 -0.963977
1.133908 -1.491872 0.720334
0.954901 -1.728886 -0.503676
1.598618 -0.593419 1.058200
-1.930065 0.306814 -0.475933
1.901081 0.368736 0.580027
-1.060524 -1.275873 -1.117705
1.168698 -1.291920 0.866821
1.784510 0.720389 -0.253322
0.981839 -0.293951 -1.714011
-0.987239 -1.770546 -0.289310
0.016889 1.946459 0.387593
-0.169708 0.732936 -1.821132
0.269029 0.875718 -1.768411
1.818951 0.507099 -0.686326
0.545612 1.919422 0.154833
0.474967 -0.928003 -1.731800
1.416665 -1.402003 0.064414
-1.294444 1.225169 0.865239
1.745378 -0.902683 -0.482298
-1.748484 -0.773805 0.664488
1.003828 -1.243938 1.161641
1.144693 0.401791 1.636253
-0.710468 -1.055197 -1.519200
1.796875 0.825579 -0.021904
0.173186 -0.859124 1.837641
0.354929 0.310122 1.957922
1.022222 0.430540 -1.629205
0.434463 1.587360 1.138386
1.593198 -0.510531 -1.000982
-0.229987 0.134791 1.974354
-1.463340 1.307199 -0.138905
-0.435070 -1.012359 -1.677410
1.070700 0.120498 -1.697139
-1.259078 -0.261467 1.601956
-0.374795 -1.925047 -0.333191
-0.193279 -1.980626 -0.047085
-0.255708 0.679292 1.831566
1.381646 -0.337743 -1.403053
2.019903 0.090629 -0.006579
-0.188725 1.623529 -1.158113
-1.444114 -1.356533 -0.068114
-1.241188 -1.553367 0.262435
-0.189630 0.984610 -1.712989
0.816296 0.971257 -1.491621
-0.481874 -0.538179 -1.873226
-0.680484 -1.009437 1.625364
1.037909 1.485844 0.813318
-1.636503 -0.724453 0.708681
-1.719596 1.019394 -0.346522
-0.817675 1.549142 0.909959
-0.444478 1.405524 -1.344725
1.397942 1.266718 -0.656392
0.402075 -1.582939 1.186613
-0.301468 -0.863978 1.797245
-0.646127 -1.290539 -1.438557
0.512665 -1.047049 1.593542
-1.586213 1.219821 0.171121
-0.267053 -1.580720 1.162240
-0.071584 1.998059 0.208423
0.689558 -1.836152 -0.312024
0.285162 -1.465619 -1.214976
1.885397 0.463241 -0.454548
0.070006 1.100582 -1.619127
-1.264025 0.323739 -1.574094
0.418703 -1.704226 1.000968
0.835010 0.486437 1.782232
1.204727 0.758158 -1.394198
-1.834639 -0.883931 0.027385
1.209514 -1.580651 0.368787
-0.900560 -0.684688 -1.582803
-1.016491 -1.474959 -0.968027
0.716432 -0.661068 1.776745
0.900581 0.367157 -1.694732
1.558959 -1.289052 0.269346
1.795749 -0.060761 0.791751
-0.750243 -0.066596 1.878030
-0.587641 1.766175 0.693578
-0.916005 0.972056 1.507205
0.754966 -1.741290 -0.746981
-0.706385 -0.212997 1.899066
0.265069 -1.896314 0.541647
0.933497 0.855079 1.568612
1.707651 0.955982 -0.171012
-1.924149 0.534324 0.226640
0.319190 -1.504878 -1.250241
1.610864 -0.081235 1.092356
0.096307 0.048609 1.941790
-1.456967 0.255783 -1.357502
-1.523002 -1.075922 0.750908
-0.659247 1.582559 -1.070005
-0.225722 -0.611273 1.893100
0.215870 1.152231 -1.612970
0.550746 1.910545 0.190202
1.201208 -0.540845 1.554781
1.942832 -0.263929 -0.363720
1.289898 1.472068 -0.452401
-0.598310 -0.406708 -1.862956
-1.161900 -1.279295 -0.973376
0.006771 0.330799 1.982800
-1.379642 1.357118 -0.289830
-0.021189 1.023048 -1.738394
1.165596 0.483177 1.502655
0.215399 1.881145 -0.499093
-1.046356 -1.286927 -1.077333
-0.635389 1.244791 1.430466
-0.999124 -1.527231 0.873122
-1.272938 1.481487 0.434388
-1.104219 1.117859 1.248031
-1.558467 -1.035823 0.758951
0.275367 0.631570 1.896058
-0.241609 -0.978252 -1.712607
-0.770484 -0.064444 1.793102
-1.824503 0.746410 -0.055361
0.828274 1.798374 -0.382591
-0.740553 1.580753 1.028027
1.884437 0.606937 -0.410855
0.810018 1.496223 1.063163
0.603101 1.282394 1.403027
1.809770 0.887647 -0.185157
0.161002 1.666408 -1.075832
1.377385 -1.424427 0.166856
2.007460 0.302958 0.103153
-1.614429 0.889059 0.757843
2.017078 -0.304861 0.245561
0.326748 1.929979 -0.108098
0.740614 1.769578 0.564013
-0.775184 0.332997 1.880133
-1.658079 0.181047 -1.076072
1.244969 -1.511662 -0.524390
0.508345 1.920462 -0.096152
-0.418533 1.593761 -1.170994
-1.940133 0.442580 -0.452894
-1.622688 1.128839 0.431612
-0.658609 -1.540566 1.072192
0.664684 -0.084442 1.808175
-1.085592 -1.527707 -0.730712
-0.252166 1.401799 -1.343099
0.409598 -1.302314 1.481692
-0.142460 1.893810 0.590925
1.043730 1.296438 1.064041
0.881939 1.760668 0.290751
0.863067 -0.104038 1.816143
-0.704050 1.885537 -0.057233
-1.805875 0.154985 -0.879192
1.451638 -1.177538 -0.788027
-1.225067 -0.298888 -1.567783
-1.647725 0.804549 0.842780
0.785145 -1.864870 -0.121494
-0.018412 -1.231237 1.561175
1.899698 -0.501917 0.064849
0.219462 -1.992112 -0.251535
-1.124300 -1.611355 -0.477408
1.821978 0.589797 -0.584223
0.655185 1.584669 1.124228
0.135541 -1.386769 1.461333
0.621623 1.533026 1.064461
1.215168 -0.622175 1.487301
0.160928 1.942533 -0.637422
1.916905 0.236696 -0.684224
-1.335295 -0.879516 1.122363
1.338135 -1.452143 -0.064189
1.495498 1.238404 0.364302
0.158765 0.381441 1.987715
-1.047280 -0.311888 -1.718329
0.933114 1.428477 -1.079917
1.263048 -0.933498 -1.134680
0.291510 1.044637 1.696512
-0.828001 1.883704 -0.100699
-0.304023 1.556631 1.155749
-1.255152 1.133885 1.060690
-1.422247 0.914471 1.077066
0.581695 -1.177503 -1.497080
-0.061069 1.807268 0.876328
-0.243379 0.502957 -1.900855
1.052700 -1.623869 -0.330307
-1.091991 -1.277157 1.095957
-1.585778 1.223605 -0.179817
0.709673 0.049459 -1.889205
1.040683 -0.543522 -1.655530
-0.501820 1.697670 0.951191
-1.250910 -1.249440 -1.110239
1.941176 0.272052 0.384133
1.876627 0.480256 -0.487357
-1.838369 -0.670335 -0.414596
1.430619 0.106949 1.432513
0.037126 0.016058 -1.945086
1.301843 0.504143 1.425917
-1.633742 1.151754 -0.068242
1.307093 -1.246755 0.735444
-0.961177 -0.562577 1.722552
-0.432001 0.485046 1.875975
1.587246 0.495329 1.207376
1.987200 -0.027707 0.169656
1.126149 1.122492 1.250752
0.604377 -1.093907 1.563269
-1.623992 0.427245 -1.067097
-0.229004 1.446074 1.410679
0.474522 1.840484 0.553426
-0.288667 1.287797 1.516229
-1.606604 0.729298 0.901937
-0.390540 1.929785 -0.192804
1.165724 -1.604778 0.110898
-0.906440 -1.283779 1.316506
-0.721801 -0.751453 -1.687484
-0.565973 -1.155313 1.461958
0.840550 -0.509113 1.750856
0.759989 -0.273370 -1.872803
1.438943 -0.899735 -1.078286
0.721677 1.626540 0.937852
0.936055 0.950684 1.450614
1.802691 0.687113 0.214337
-0.095518 -1.841350 -0.692477
-1.687019 -0.125586 -0.990957
-1.230187 0.209428 1.597417
0.908798 -1.507980 -1.005336
1.335929 -1.428927 -0.323063
0.949525 -1.658941 0.233891
-1.763201 -0.800818 0.420624
-1.956087 0.535301 -0.016029
0.704986 0.310841 1.827988
0.482864 -1.877855 0.515066
2.043099 0.195344 0.108352
-0.809933 -0.825020 -1.614929
1.537093 -1.105655 -0.574576
-1.251216 1.468632 -0.515354
1.758021 -0.977689 0.301162
-0.658506 1.672821 -0.880936
0.743745 1.537503 1.046526
-1.664186 -1.138357 0.385948
-0.108214 0.782617 1.830932
-0.827236 -1.868913 -0.105571
1.603104 -0.506837 1.050723
1.797553 -0.591413 0.584233
1.927423 -0.431884 -0.237030
-0.887220 -1.510353 -0.949244
-1.753903 0.081901 -1.074769
0.303583 -1.899544 0.370449
0.738856 -1.826849 0.317609
1.074405 -1.033047 1.376189
1.025609 -1.751365 -0.147557
1.441880 0.185002 1.379347
-1.101864 0.154336 -1.657904
-0.137376 -1.543730 -1.249859
1.427175 1.203583 0.744136
-1.307762 -0.331620 1.437121
0.174809 1.991534 0.350377
0.997870 -1.602297 0.725001
-0.249911 1.121192 1.561019
-0.660475 -1.099906 -1.531655
0.447578 -0.951252 -1.737566
0.253476 1.998925 -0.007646
1.989559 0.167019 -0.194775
1.868982 -0.562909 0.530776
0.536875 -1.100042 1.627621
-0.321512 -1.570414 1.115763
-1.988072 0.023903 -0.003116
1.845660 0.744825 -0.077079
0.949849 1.620163 0.617415
0.023922 -1.545091 -1.266453
-0.886303 -1.693146 -0.479371
0.196339 1.953105 -0.247654
0.467273 0.059168 -1.918813
-1.278517 -0.147780 -1.570552
0.573929 1.493233 1.189895
-0.334035 2.015080 0.197727
-0.870892 -1.580418 -0.824017
-1.698358 0.743815 0.733825
-0.059013 0.686046 1.859475
0.624976 -0.942947 -1.667286
1.096993 -1.639441 -0.295938
-1.030926 -1.637607 0.401534
0.538702 -0.448792 -1.925941
-0.709621 0.485644 -1.780875
0.612741 -0.068572 1.919835
0.140832 -1.278915 1.512411
-0.387348 -0.069361 -1.966194
-0.885376 -1.773926 -0.372670
1.275393 -1.047092 -1.161782
1.775419 -0.279464 -0.865119
0.935994 -0.524601 1.685430
0.615450 -0.406157 1.831979
-1.217032 1.455491 0.636367
1.244586 1.562830 0.058270
-1.299103 0.814340 -1.196575
2.031952 0.114623 -0.402321
0.164616 -1.590791 -1.219273
1.382278 -0.749407 -1.209705
0.734619 1.601568 1.005435
1.023346 -0.819554 -1.524740
1.954678 -0.387752 -0.308877
1.794230 0.701189 0.653679
1.819003 -0.505023 0.813428
0.023728 0.330182 1.946430
0.801103 0.794707 1.668878
-0.484405 -1.187582 -1.495983
-1.318419 1.322267 -0.685573
-0.919882 -1.181298 1.298018
1.173980 1.270344 -0.825242
-0.849961 1.377899 -1.177427
1.714895 0.540868 0.829399
0.975300 1.811926 0.216177
-1.691312 0.525873 -0.842287
-0.706683 0.776574 1.693286
-0.031148 0.375102 1.976670
0.199277 1.978166 0.434109
-1.798958 0.745152 0.369022
1.800646 0.964348 -0.196622
-1.625251 -0.304852 -1.094838
-0.603139 0.689984 1.766034
0.579704 -1.783964 0.685214
1.766696 -0.929764 -0.172144
0.050488 -1.569361 1.314161
-0.209461 0.852358 -1.792194
-0.931128 1.539182 -0.806839
1.868470 -0.421031 0.204651
0.807709 -1.169742 -1.446214
-1.503081 1.219676 -0.494325
1.873595 -0.391401 0.150688
0.908771 1.197044 1.313550
1.400693 1.176494 0.734864
1.248971 -0.905387 -1.295720
-0.044713 -0.670017 -1.840467
1.190815 1.622517 0.201984
1.574137 -1.251801 -0.192839
-0.653826 -1.895900 -0.093477
-0.135603 1.839379 0.737865
-0.804159 1.586303 1.004725
0.989785 -0.442130 -1.668373
-0.304017 1.000409 1.706926
1.550437 -0.529493 -1.112619
0.183672 -2.007777 0.406126
-0.159765 -0.516826 -1.952436
0.701066 -0.774106 -1.675193
-1.648123 0.004878 1.042901
1.789561 -0.463971 -0.688825
0.868745 -1.754718 0.575555
1.077087 1.688302 -0.153733
-0.343262 -1.422773 -1.349749
-0.466115 0.722207 1.810738
-0.999640 1.752865 -0.345276
-0.051445 -0.639701 -1.965021
1.451718 1.222616 -0.416319
0.065578 0.631896 -1.885563
-0.667425 1.005582 -1.627526
0.444493 -1.798713 0.586608
-0.066512 -1.630324 1.140706
-1.306126 -1.479244 0.425714
1.532681 -1.317495 0.111194
1.061621 1.645379 0.398679
-0.804829 -1.794200 0.193621
-0.729691 -1.883427 0.275637
0.661415 -1.675731 -0.782942
0.591464 1.959747 0.087498
-0.941634 -0.218776 1.772512
-1.132048 -1.410799 -0.837308
-1.086002 0.150429 1.725104
1.277409 -0.941577 -1.180056
-1.751790 1.042572 -0.111588
-0.128878 1.983747 0.211238
-1.039865 -0.632045 1.582069
0.114206 -1.683836 1.087464
-0.577891 1.602147 0.986353
-0.650943 1.927371 0.113219
1.349483 0.762288 -1.266150
-1.006017 1.632204 -0.463308
-0.694064 -1.688209 0.718069
1.737440 -0.910497 0.025222
1.883503 -0.103029 0.656897
-1.809797 0.703805 -0.325822
0.629837 0.776144 1.705646
1.659096 0.902934 0.557366
-1.252845 1.096757 -0.972270
0.234824 1.569887 -1.207332
1.270652 1.559709 -0.078336
-1.652959 -0.444144 1.018512
-0.080945 -1.797160 -0.897596
1.617292 1.054185 -0.466306
-0.689891 -0.732625 -1.760504
1.555911 -0.353285 1.217895
1.563808 1.102255 -0.420008
0.806484 -0.126970 -1.836350
0.378627 -1.413617 1.377979
-1.555779 0.713410 0.948847
-0.696827 1.460634 -1.196666
1.098353 -1.689799 0.172499
1.755437 -0.851248 -0.594756
1.581797 0.543969 1.118400
0.695949 0.928771 1.622958
0.979992 -0.626951 1.642708
1.774294 -0.108987 -0.927057
0.943534 -0.124918 -1.728468
1.631590 -1.050776 -0.165647
0.799787 0.485368 1.798559
-1.273989 1.437785 -0.794450
1.072517 0.966322 -1.412092
1.456646 -0.742215 1.172102
0.334168 1.915904 -0.191826
-1.453379 -0.086999 -1.346961
0.828851 -1.499848 -0.988574
-0.982372 0.851116 1.529899
-0.982382 -1.560342 0.691905
1.511110 -1.190595 0.326042
1.773500 0.944698 0.307420
0.675019 -1.841673 0.410793
-0.640399 -1.746120 0.453441
1.636837 -0.144663 1.139799
1.213817 0.953735 1.245096
0.817223 0.019677 -1.777236
-0.181386 -0.718582 1.860855
-0.562160 0.423089 1.890812
0.039353 1.916160 -0.679789
0.260718 -1.010587 -1.720351
-1.660077 -0.118139 -1.171888
-0.914198 -1.728041 -0.065944
-1.725446 0.863961 0.099827
-1.785345 -0.391387 -0.928830
0.311510 1.140195 -1.579610
0.346914 -0.388614 1.874571
0.542851 -1.747062 -0.785057
-1.159109 1.617721 0.025017
2.432407 -0.476201 1.339459
3.003654 1.029184 -1.066368
2.337545 0.889866 -1.073060
1.589287 0.102564 0.371689
2.648583 0.752294 1.249546
3.892630 -1.183336 -0.397065
3.866611 0.626363 -1.014435
3.226618 -1.448688 0.032298
4.243478 -0.604074 -0.520100
3.624211 -1.284819 -0.570678
3.971199 -1.073226 -0.389166
4.235578 0.726400 0.428324
2.014320 1.109258 -0.348758
3.979352 -1.083066 -0.410273
1.814575 -0.057248 -0.927558
1.556851 0.293034 0.327360
4.204850 -0.700428 0.609738
3.762967 0.664554 -1.171956
3.598432 1.429543 0.008494
1.963987 0.047959 1.083671
2.394763 -1.201910 0.659177
3.243581 0.956724 -1.071849
4.162837 0.939098 -0.234090
3.368918 1.155434 0.951990
1.771362 0.858550 -0.073996
3.648651 0.596707 -1.236672
4.077344 -0.043731 -0.966905
2.560485 0.208197 1.416180
3.264139 -0.451033 1.387221
3.315707 1.437479 -0.185068
3.496395 0.831345 1.150568
4.190198 0.943153 -0.374321
2.246337 0.416642 1.157903
2.863919 0.901393 1.216494
1.904421 -1.046639 -0.183105
3.336466 -0.562242 1.292074
3.417894 0.035254 -1.434009
2.239119 0.186292 -1.260850
3.482461 -0.115318 1.445413
4.512607 -0.154631 -0.113913
3.560015 0.976472 -0.935608
1.627774 -0.497094 0.423274
3.476556 0.954165 -1.074989
1.663086 0.532798 -0.499343
1.646497 0.106424 0.542562
2.708797 -1.405436 -0.488774
2.608998 -1.259257 -0.632081
4.281118 0.796373 0.390950
2.367230 -0.163546 -1.299250
3.143983 1.025310 -1.033182
2.352620 0.359430 1.316662
2.704198 -0.488343 -1.427066
3.077461 1.515950 0.200749
2.919804 1.464176 -0.052292
1.946787 1.069949 0.288203
3.036929 -0.865980 1.221679
3.761636 -0.656684 1.135488
2.361233 -0.989100 -0.962102
1.945195 0.214292 -1.080235
2.242290 -1.330480 -0.053024
2.852557 -0.413649 -1.368707
1.733695 0.541309 -0.621963
3.476345 -1.469195 0.319276
4.360572 0.574556 -0.423540
4.072390 -1.013135 0.067297
1.790098 -0.571965 0.745738
2.253381 -0.753255 -1.054045
1.806773 -0.911708 0.147702
1.713106 0.754186 0.012397
1.663002 0.468037 0.547143
1.937656 0.510505 -0.901408
3.069500 -0.878941 -1.301240
1.979862 -0.337863 -1.042785
1.606136 -0.478821 0.262587
2.875045 0.407637 -1.392796
4.012824 -1.009778 0.451235
4.347882 0.569352 -0.257351
2.594747 0.850199 -1.152482
2.079383 -0.346437 1.207083
3.494697 -1.348276 -0.421975
2.344157 -0.801806 0.997651
2.134594 1.085585 0.494845
4.351655 -0.534305 -0.144859
1.687949 -0.495921 0.464130
4.111239 -0.918780 -0.340766
2.826853 -1.344022 0.580927
1.801015 -0.354888 -0.775922
1.525392 -0.012693 -0.439590
2.350139 -1.287494 0.566651
4.303022 0.056502 0.811990
1.902169 0.134463 -0.944943
1.997056 -0.584076 0.878372
3.788564 0.240683 -1.252737
2.249820 1.101562 0.647263
1.619686 -0.650495 -0.063846
3.310109 -1.415794 -0.122228
3.156034 1.147644 0.942070
3.354171 -0.548314 -1.362973
2.716444 0.869124 1.175248
4.145192 0.702327 0.642193
2.526366 -0.117105 1.420964
2.236688 1.266364 -0.317173
4.013590 -1.035857 0.411939
2.370725 -1.315588 0.172461
3.784705 -0.623354 -1.115245
2.742435 -0.219525 1.453574
3.699767 -0.099889 1.321736
3.253852 -0.335378 -1.471232
2.611645 -0.516598 1.304478
3.535706 -1.379656 0.200528
3.528511 1.213777 0.734916
4.327048 0.088029 0.671765
4.025036 -1.032449 -0.300648
2.231096 0.388962 1.199335
2.642137 -1.479318 -0.300605
4.209615 0.693934 0.567912
2.700978 -1.392797 0.547970
2.443013 1.403039 0.314908
1.967378 -1.112368 -0.147239
2.679644 1.431944 0.267206
2.459650 1.413976 0.007037
4.061008 -0.869484 0.511443
3.186653 -1.021959 1.093496
4.061921 -0.285140 -0.953450
4.053712 0.232541 1.066116
3.146887 0.504991 1.394280
3.471321 -0.848279 1.091360
3.639790 1.282379 -0.389244
3.163905 -1.422851 0.379510
2.674876 1.292772 -0.538899
1.992047 -0.342800 -1.112838
3.516853 -1.418082 0.016238
1.924958 -0.187793 0.939089
3.558294 -1.374500 -0.057136
3.006369 0.544720 -1.382218
3.317155 -1.497854 -0.343598
2.165596 1.180543 0.075529
1.823010 -0.848559 0.147231
2.770239 -1.127225 -0.977394
4.202796 -0.928002 -0.159487
4.021924 -0.661757 -0.904700
4.119847 -0.956674 -0.490452
2.345064 -0.215702 1.338369
3.694104 0.695087 -1.156940
2.421970 -1.319350 -0.377616
4.280513 0.641583 -0.256073
2.916647 -1.454877 0.437914
3.597713 -1.381625 0.184179
4.151368 -0.519291 0.936787
4.454736 -0.082678 0.190485
1.761276 0.291890 0.795419
3.246765 -1.486519 0.238501
4.147169 0.356904 0.789587
2.555070 1.385114 0.538775
1.978616 0.284945 -1.071719
1.671490 0.372331 0.594577
1.924171 0.924509 0.488965
2.383547 -1.347809 -0.155358
1.896844 0.260154 -0.977845
1.554908 -0.306288 -0.212104
3.421563 -0.502180 1.327992
1.723743 0.800129 -0.094311
3.879775 0.058704 1.127666
2.673190 -0.903872 1.181328
2.822888 0.218236 1.483945
1.865887 0.624734 -0.633110
2.869638 0.104661 -1.494601
2.273017 1.125297 0.772895
2.730271 0.931196 -1.146359
4.376155 -0.165949 0.223012
3.839627 -0.561842 1.159122
1.999293 1.071481 -0.273449
2.838107 -1.503341 -0.328849
1.680289 -0.714382 -0.165081
4.417975 0.305620 0.396725
2.254334 -0.558554 1.186906
2.432241 1.370920 -0.228418
2.978183 0.968919 1.078256
2.642406 -1.415506 -0.168980
3.484389 1.439884 0.073601
3.478304 1.394243 0.319142
3.106754 -0.731319 -1.267235
3.875758 -0.183247 -1.234703
3.271333 -0.074324 1.464962
3.082395 -0.876867 1.210551
2.587493 1.059052 -0.945514
1.499342 0.254254 0.004985
3.438624 -0.209169 -1.478219
2.358989 1.254839 -0.443132
2.738957 1.202193 -0.878200
1.605103 -0.148257 -0.426367
1.615578 -0.226143 0.652197
3.042024 0.269054 1.486135
2.251561 0.589472 -1.084484
1.940955 -0.761390 -0.585149
3.200179 1.395780 -0.431522
1.932057 -0.175601 1.043087
3.152537 0.668473 -1.304155
1.686670 -0.273078 0.650242
2.280487 -1.297997 0.214060
3.211919 -1.116673 -1.020614
1.729251 0.136547 -0.784989
3.235670 -1.464902 -0.391228
1.649130 -0.303564 -0.620073
3.597335 -1.345279 0.048088
3.393386 1.459416 -0.355903
3.157087 -0.868999 -1.183172
3.885867 0.069014 1.210878
2.123699 0.331613 1.211575
4.207118 0.766295 0.007916
1.861585 0.927337 -0.408551
3.347513 -1.202295 -0.872866
4.064922 -0.302306 1.076821
2.967223 -1.320393 0.689910
2.098764 1.135017 0.044628
2.126764 0.091702 1.271027
3.584021 -0.098678 1.403246
3.309918 0.266919 -1.421711
3.269831 1.194452 -0.925876
4.301890 -0.002572 -0.774241
4.164919 -0.312786 0.874788
2.312455 -0.150271 1.276104
3.164039 -1.264360 -0.702895
4.281968 -0.167088 -0.776066
2.240712 -0.594277 -1.086994
2.843769 -0.824838 -1.297186
2.911832 0.296936 1.523525
1.949561 0.849530 0.686302
1.735296 0.319178 -0.750513
3.123748 1.391032 0.553822
3.491344 -0.393979 -1.373317
2.814114 0.926793 -1.148127
1.873241 0.133364 -1.012538
2.251266 -0.406315 -1.246126
2.143098 0.604726 -1.131275
1.748147 -0.436031 0.562234
2.432887 -1.397554 0.162587
1.550055 0.414552 0.283946
2.601597 0.932931 -1.055679
4.400043 0.211767 -0.435569
2.972234 -0.126896 1.471187
2.043659 -0.635854 0.903209
2.591472 0.715854 1.241621
2.525491 0.739705 -1.253563
4.296342 0.328766 0.753297
2.442662 -1.312806 0.390506
1.649749 -0.179196 0.601963
3.128875 1.321960 0.716303
1.522940 0.055834 -0.106378
1.755393 -0.777457 -0.429437
1.568262 0.008207 -0.205266
1.627654 0.347019 0.589537
3.473818 -0.710656 1.249495
3.870388 0.418859 -1.085904
3.266550 1.268296 -0.608531
4.436510 -0.330432 0.017853
2.458813 0.191218 -1.415996
2.337256 -1.344928 0.125634
3.572678 0.357543 -1.346346
4.353120 0.248651 -0.502029
3.362104 0.364435 -1.465883
3.451222 -1.206960 -0.824653
2.367198 -1.312122 0.136438
3.814375 0.715147 1.054804
3.444920 -0.735251 1.122777
1.919873 -0.756581 -0.778291
4.060954 0.923192 0.466164
4.091820 -0.853840 0.421791
2.747772 1.518081 -0.212072
2.478614 0.736182 1.175757
2.229601 -0.069322 -1.281101
1.507940 0.089783 0.304910
3.197100 -1.499432 -0.271349
1.862927 0.763435 -0.577778
4.036878 0.839589 -0.730078
1.822848 0.318271 -0.858247
3.108053 -0.410795 -1.436788
1.541499 0.141599 -0.439091
2.429777 0.738129 1.176733
2.385563 -0.792509 1.141251
1.619877 0.197721 0.598651
3.493911 -1.345066 -0.506690
1.706845 0.168176 0.665846
4.388299 -0.466218 -0.462228
4.072031 0.265190 1.083196
3.175965 -0.928653 -1.158303
1.842102 0.471305 0.906484
4.207868 0.535344 0.754144
2.419963 -1.116357 0.825912
4.109821 0.307030 1.017152
3.250900 1.062106 1.046138
3.690265 1.111124 0.685209
2.608613 0.681375 -1.302329
3.978486 -1.103722 0.270468
1.773385 0.851799 -0.068171
1.612732 0.329882 -0.475067
4.411981 -0.007394 0.606889
1.861168 -0.712805 -0.553445
3.591626 1.248685 -0.617492
3.564097 -1.215516 -0.680867
2.366060 -0.928124 -1.007317
4.065838 -0.593336 0.977418
4.021931 0.428189 0.994630
2.935327 -1.124328 1.033384
2.173712 -1.234971 -0.205276
1.731065 -0.520373 0.470515
3.512756 -1.250759 -0.640687
3.674368 0.300065 1.342163
3.808083 0.755463 -0.983180
4.233186 -0.042684 -0.872783
3.272294 1.268637 0.680494
1.989355 0.843412 -0.724710
3.772593 -1.065935 -0.755270
3.490848 -0.695953 1.246101
1.596348 -0.464207 0.285428
4.473696 -0.265988 -0.106340
3.383651 -0.257305 1.504356
3.781592 0.804533 -0.913484
2.824547 -0.435264 -1.368747
3.540206 -0.935055 1.022398
2.302039 1.198164 -0.622524
3.349324 1.229042 -0.802013
3.605966 -0.953449 1.020181
3.018997 -1.348229 -0.678060
4.005835 -0.664244 -0.905829
2.880462 -0.799422 1.255091
2.200543 1.215913 0.367456
1.783453 -0.022552 0.930600
2.834671 1.169370 0.967887
3.882072 -0.437295 -1.064038
1.851664 0.348521 0.921923
1.484030 -0.032674 0.133188
2.703236 1.358434 0.482717
4.166055 -0.189389 0.840701
4.026670 0.847551 -0.677448
2.454952 -0.798662 1.137761
3.934859 -1.153218 0.106883
1.801419 0.799401 -0.293339
3.081446 -0.411233 1.407941
1.545344 0.005969 -0.062772
2.624508 1.274408 -0.628677
3.765175 0.334773 1.259238
2.298335 -0.698978 1.153155
3.363343 -1.389511 -0.557009
3.461447 1.056709 -0.885268
1.625210 0.204711 -0.580019
2.167851 -1.173780 0.284893
3.132679 -0.281034 1.501496
3.452848 1.061854 -0.961175
2.954431 -1.552378 -0.200586
2.439883 1.420198 0.068200
3.379177 0.403618 1.344775
2.502000 -1.350603 0.340057
2.299486 1.289439 -0.286692
2.170222 -0.669304 1.011370
2.892205 -0.562705 1.379770
1.823415 0.029635 0.909684
1.767846 0.363844 -0.862243
3.800116 -0.981874 0.751017
4.137445 0.900019 0.273550
2.803514 -0.602314 1.355296
2.249486 -1.076820 0.779361
2.365538 -0.791176 -1.125974
1.715221 -0.223610 0.639494
4.321158 0.735735 -0.290096
2.796832 0.582327 1.413421
3.169418 -0.647364 -1.310524
1.683318 0.603438 0.470958
3.599403 -0.134190 1.420816
2.337110 1.300417 -0.011491
2.078709 0.969128 0.628844
4.445616 0.335603 -0.175540
4.347806 0.647455 0.311440
3.157535 1.317020 0.680485
3.113625 -1.420165 -0.351419
1.529169 0.088087 -0.229163
4.202535 -0.009474 -0.879912
2.948703 -1.319082 0.655505
3.321513 1.150795 -0.958413
3.054108 -1.349308 0.654757
4.092890 0.956041 -0.049145
3.364692 1.433697 -0.265411
3.101440 -1.190396 -0.920264
3.146438 1.455244 -0.303246
2.515021 -0.879429 -1.134750
3.179988 -1.130480 0.997740
2.398766 0.716631 -1.195816
4.021116 0.979486 0.607510
2.046521 0.260324 -1.089306
2.708269 1.171033 0.939903
3.015487 -1.290127 0.892462
2.997779 -1.416520 0.514071
2.959400 1.078571 -1.002362
1.458170 0.122092 0.143926
2.241033 -0.480879 1.271484
2.555963 1.112411 -0.959790
1.490398 -0.112734 -0.194937
1.747583 -0.304832 0.785669
2.779535 -1.351640 0.520089
1.981782 -1.104748 0.431411
3.473177 -0.056190 -1.381394
2.411204 -0.225022 -1.406936
2.336638 0.569733 1.210638
2.706567 0.560689 -1.338028
3.875501 -1.046285 0.448207
2.768111 1.268281 -0.747302
4.292104 -0.601425 -0.408156
2.687158 -1.454604 -0.025609
2.623297 1.313478 0.492848
3.786939 0.842453 -0.965381
3.775874 -1.110004 0.545027
3.439290 -1.448152 0.057530
2.577317 -0.742513 1.239922
2.056676 -1.195118 0.162991
3.730373 -0.176274 1.256770
3.399692 -1.401725 -0.372853
2.724114 0.269721 -1.436213
4.455744 0.282940 0.095760
3.624567 1.325775 0.434242
4.516093 0.199140 -0.210295
2.417642 -1.073440 -0.851046
1.981115 -0.074275 -1.197346
4.137810 -0.230125 0.916209
2.791022 1.362930 0.579313
1.681960 0.252420 -0.621239
2.146462 -1.157352 0.346661
2.319091 0.922839 0.955067
4.230906 -0.737219 0.421570
3.859212 -0.639527 -1.063367
4.355385 0.142836 0.525666
2.232228 -1.180883 -0.548800
2.840369 -1.474233 -0.046168
1.843277 -0.753318 0.437602
3.701818 -0.435808 -1.229068
1.718955 -0.483215 0.754378
3.856714 -0.489335 -1.106989
3.441961 -1.232724 -0.738097
4.308913 0.833182 0.159457
1.799234 0.203606 0.985455
2.702150 1.114923 1.042476
4.410779 0.288298 0.502067
4.280087 0.413654 -0.444295
2.490671 0.251294 -1.427094
2.965969 0.720571 -1.365645
4.181199 0.840323 -0.334141
3.621448 0.027862 1.382022
3.903107 -1.192067 0.435762
2.582986 0.116195 -1.479748
4.181432 0.693105 -0.541305
1.640210 -0.412627 0.442376
3.266925 1.229583 0.781630
3.853875 0.225907 -1.279344
2.738387 1.488154 -0.009684
3.639089 -0.377317 -1.304353
2.757293 0.680479 -1.401331
2.773537 -0.887991 1.142712
2.842094 1.004487 1.075933
2.948567 -0.719021 -1.384676
2.062221 -0.819845 0.873521
3.086687 0.283618 -1.480407
1.852284 0.876834 0.285113
2.864899 0.508358 1.400115
1.928751 0.311419 0.925948
4.122912 -0.970044 0.301214
2.830016 0.952805 -1.132251
3.018978 0.380322 1.509299
3.964545 -0.984290 -0.538745
2.611255 -1.502301 -0.213017
3.582893 -1.062390 0.843739
3.840389 -1.244890 -0.276935
4.376512 0.582656 -0.017630
2.310698 0.159082 -1.342710
1.866029 0.998641 0.079264
3.696352 -0.043890 -1.260799
2.873962 -0.843526 1.247218
1.872018 -0.972797 -0.396244
4.077035 -0.000883 -1.025312
4.192584 0.673577 0.524867
3.334990 1.046614 1.015197
2.375978 1.332690 0.310811
3.403269 -1.449022 -0.088055
2.202369 0.859813 1.030538
1.683397 0.000273 0.789397
2.633016 1.283208 0.611622
3.397492 -0.366659 -1.411283
1.783229 0.806268 0.013212
2.596968 -1.149693 -0.871928
3.961008 -0.231997 -1.152367
4.444581 -0.367159 0.093847
4.452007 -0.034677 0.225878
1.697710 -0.224944 0.639156
1.501758 0.151287 0.069240
3.073321 1.404587 0.450989
4.192446 -0.828794 0.112820
3.066302 -1.121810 1.003636
4.441326 -0.055011 0.372597
3.045769 -0.549732 -1.364947
2.647729 -0.940905 1.119689
2.799100 -0.556105 1.366263
1.729486 -0.846716 0.030815
4.345983 0.644175 0.330711
3.243589 1.308666 0.673529
1.927182 0.035694 -1.107738
3.020319 -0.342121 1.513287
2.936999 -1.457701 -0.110560
3.382840 1.325154 -0.401480
1.999120 0.542815 -0.911331
1.701577 -0.742780 -0.225791
3.963983 -1.056376 -0.406469
2.846693 1.249404 0.786107
3.612862 1.257144 0.580458
3.412881 -1.414879 0.060171
3.689148 0.967867 -0.945275
1.996996 -0.852602 0.813551
4.119684 -0.397097 0.895240
3.707125 -0.734190 -1.127953
3.452280 0.223115 1.372302
1.902919 0.644371 -0.723120
1.488551 -0.071149 0.236923
4.450529 -0.008107 -0.537876
3.229016 -1.478782 -0.050888
3.008862 0.954201 1.178135
2.169642 -0.245489 -1.238642
2.046324 0.236818 -1.106239
2.543419 -1.198622 0.721822
3.934566 -0.665093 -0.930508
2.304316 0.034780 1.260535
1.945328 -0.500084 0.880636
3.657485 -1.322815 -0.288559
3.225438 -0.699240 1.315657
1.890159 -0.044400 1.014993
2.585562 -1.413795 -0.332734
4.146373 -0.383434 -0.923763
4.265701 -0.424449 -0.744296
3.110838 0.454004 1.445819
3.844085 1.199022 -0.461412
1.551233 0.133791 0.164311
1.610347 -0.199838 0.536837
3.780226 1.116866 0.636351
2.430969 -0.512086 -1.283382
4.549656 -0.037549 -0.204192
2.573725 1.384556 -0.481758
2.249672 0.702777 1.028482
3.691499 1.245671 0.344310
1.612713 -0.370670 0.456935
4.156353 -0.803845 0.623044
3.244148 1.432811 -0.154292
2.018916 0.877211 0.706824
4.300382 -0.034124 -0.787283
1.706341 0.640398 0.316442
1.822083 -0.661093 -0.551813
1.918237 -0.597539 -0.886300
2.654499 -0.605044 -1.272227
4.232554 0.796610 -0.448866
3.295138 0.488490 1.390792
2.136922 1.102319 -0.564987
2.043121 0.482388 1.007288
4.293673 -0.653923 0.392372
2.663695 0.722474 -1.261531
1.785570 -0.767381 0.075111
2.312626 0.754525 1.094144
3.486947 1.358232 0.288140
2.055940 1.005756 -0.469944
3.754455 1.244960 0.415745
1.935154 -0.590882 0.922941
2.623909 0.234055 1.454556
4.315255 0.494941 -0.408634
2.556953 1.208222 0.768699
2.674319 1.437964 -0.230902
2.145611 -0.828432 -0.966112
2.697875 1.240146 -0.766666
3.358227 -1.315472 -0.547070
1.580156 -0.226001 -0.214097
3.628419 0.238108 -1.373385
4.435019 0.279794 0.305477
2.917460 -1.381768 0.600299
3.383467 -1.347908 -0.430058
2.687752 0.325953 1.438581
1.887667 -0.694686 -0.750528
1.949615 -0.462878 1.033079
2.131127 0.325367 -1.246113
2.480983 -0.265758 1.412404
2.879647 -1.185315 -0.963119
3.048733 1.298744 0.804100
3.168199 1.368854 -0.637871
3.586468 -1.147812 -0.679136
1.491895 -0.237571 -0.029785
3.181021 0.115551 -1.525709
2.837429 -1.107822 1.062295
2.727087 -0.401379 1.411501
2.055179 -0.850347 -0.826006
2.899603 0.794883 1.302292
4.147206 -1.001128 0.250651
2.158171 -0.853774 -0.923078
2.370028 1.180388 0.605475
3.037761 0.937223 -1.054985
2.237255 -1.295234 -0.391689
3.999309 0.632579 0.951753
1.732772 0.742989 0.232515
3.532331 -1.329309 0.183154
