ply
format ascii 1.0
element vertex 250
property float x
property float y
property float z
property uchar red
property uchar green
property uchar blue
end_header
11.4281 8.5778 11.5618 0 120 0
4.1220 16.2664 16.4718 3 120 5
13.0695 3.2046 10.4134 6 120 10
6.5555 4.9999 19.0563 9 120 15
19.9311 0.8911 17.2032 12 120 20
12.0638 7.6321 5.6724 15 120 25
13.4993 9.1366 13.7172 18 120 30
13.2369 2.6596 15.3568 21 120 35
19.6483 19.3878 12.2665 24 120 40
0.8852 0.0811 2.6795 27 120 45
18.8200 6.0572 7.3229 30 120 50
17.9639 6.2873 10.9796 33 120 55
8.7206 1.2999 11.6909 36 120 60
16.8814 3.1284 4.4860 39 120 65
8.2574 0.7385 9.9321 42 120 70
16.3597 13.1578 10.6697 45 120 75
17.1025 2.9938 11.3447 48 120 80
7.4835 12.0261 2.2583 51 120 85
15.5103 1.9321 3.3273 54 120 90
16.1490 18.9539 8.6646 57 120 95
8.2816 4.9096 5.4941 60 120 100
12.3451 3.5692 2.3897 63 120 105
9.1147 3.2988 12.9745 66 120 110
16.4211 15.5502 9.6027 69 120 115
6.9514 8.6942 0.1002 72 120 120
14.2515 6.6331 6.3885 75 120 125
1.5985 8.9611 11.6570 78 120 130
7.8117 17.3909 13.4671 81 120 135
4.8282 10.5071 18.2107 84 120 140
10.4022 12.0421 1.2555 87 120 145
9.7877 9.2288 8.0226 90 120 150
8.4087 11.6987 10.7733 93 120 155
9.7979 3.3159 8.8269 96 120 160
19.3736 8.3035 0.7064 99 120 165
0.0566 10.7084 1.0115 102 120 170
1.8549 2.1751 9.0816 105 120 175
19.8538 9.7011 9.1728 108 120 180
8.7302 10.0222 8.9417 111 120 185
14.5243 17.9588 13.9574 114 120 190
8.4662 12.9906 18.1908 117 120 195
3.0725 4.7468 12.3822 120 120 200
13.7404 12.8520 11.7706 123 120 205
16.5885 9.5789 16.1518 126 120 210
19.2471 8.7071 17.1769 129 120 215
14.3648 17.7736 0.9247 132 120 220
18.2620 15.3368 19.2476 135 120 225
19.6264 5.7097 13.4000 138 120 230
2.8255 11.9027 18.3916 141 120 235
3.8395 6.9974 1.5949 144 120 240
3.8931 4.1541 1.9200 147 120 245
19.9940 17.7507 9.2752 150 120 250
14.8740 13.9047 10.4491 153 120 255
8.4697 13.2815 11.1104 156 120 4
5.3178 7.2865 12.5453 159 120 9
12.5426 4.1919 12.1955 162 120 14
17.4986 17.4267 13.0453 165 120 19
1.4035 8.4704 1.7804 168 120 24
1.1050 5.0940 9.1375 171 120 29
15.1880 12.5768 5.6497 174 120 34
13.9014 10.1301 10.1506 177 120 39
5.2724 8.8329 6.8305 180 120 44
14.5309 9.6519 8.9353 183 120 49
9.5402 9.5982 13.7928 186 120 54
14.3970 16.0219 8.1051 189 120 59
15.8708 19.2945 19.8470 192 120 64
14.4131 1.3098 16.9457 195 120 69
16.7291 0.3264 6.5533 198 120 74
6.4419 14.8088 12.2061 201 120 79
5.6464 3.7273 3.3706 204 120 84
1.9091 15.8115 18.7147 207 120 89
4.3975 14.8983 19.0229 210 120 94
3.8345 11.4379 8.7863 213 120 99
19.4972 17.3918 0.3210 216 120 104
4.0265 16.9597 11.4848 219 120 109
10.4564 16.1963 15.2808 222 120 114
19.0949 6.5340 0.9531 225 120 119
13.8457 1.0028 11.3036 228 120 124
17.1947 7.9406 12.0232 231 120 129
3.4286 3.1547 12.1211 234 120 134
17.2897 19.9968 0.6228 237 120 139
18.4196 10.2224 6.9871 240 120 144
7.9483 11.5578 6.9539 243 120 149
2.9102 17.3113 14.1298 246 120 154
12.1971 14.4512 19.7205 249 120 159
3.5019 16.4834 16.4461 252 120 164
6.8670 11.1755 9.1679 255 120 169
3.8867 8.6580 3.0512 2 120 174
18.6441 3.7493 12.6776 5 120 179
11.4003 19.4932 15.8720 8 120 184
7.2038 7.5223 0.9980 11 120 189
1.0368 6.2195 18.9966 14 120 194
0.9908 3.5349 12.7237 17 120 199
7.2092 3.7115 18.9477 20 120 204
0.8554 11.9612 8.5754 23 120 209
6.9068 3.8986 3.2562 26 120 214
8.1125 15.0469 9.3645 29 120 219
15.5463 17.5732 3.4621 32 120 224
17.5930 11.6281 8.4128 35 120 229
10.2671 17.7993 7.8393 38 120 234
1.8859 19.1948 2.3676 41 120 239
2.1365 14.4339 6.2168 44 120 244
5.7993 12.9909 17.8291 47 120 249
6.9116 18.1443 12.3948 50 120 254
12.1566 10.6505 0.2444 53 120 3
3.1611 13.5413 13.8682 56 120 8
1.9379 12.7398 9.4861 59 120 13
11.5392 7.9826 4.3569 62 120 18
7.1093 19.3763 3.7700 65 120 23
17.2459 10.6249 1.4973 68 120 28
16.2244 0.3457 16.7442 71 120 33
6.7700 18.3724 14.5399 74 120 38
7.1685 12.5066 19.7345 77 120 43
3.4219 4.1114 5.7840 80 120 48
16.4132 4.9386 4.9277 83 120 53
12.2941 11.6915 8.3748 86 120 58
11.0223 0.6219 0.1092 89 120 63
0.5534 1.1000 15.4145 92 120 68
19.5830 2.4928 7.7054 95 120 73
0.2926 8.6796 13.2334 98 120 78
12.4827 18.0311 11.0338 101 120 83
1.0554 7.5265 9.1821 104 120 88
6.7163 0.6905 12.5494 107 120 93
9.7765 14.1868 7.2917 110 120 98
1.4111 5.3063 3.5215 113 120 103
9.2148 3.0721 1.5715 116 120 108
10.4980 2.8158 2.0905 119 120 113
2.4077 14.1079 16.1331 122 120 118
16.1952 11.5159 12.7041 125 120 123
15.0738 8.5531 10.1952 128 120 128
14.2609 12.6777 12.1764 131 120 133
12.9262 10.7115 4.2784 134 120 138
6.1160 13.8260 8.3782 137 120 143
17.1686 7.4824 13.3871 140 120 148
2.3113 5.9908 17.0218 143 120 153
3.5109 12.5183 0.5556 146 120 158
12.1857 9.0285 17.9880 149 120 163
16.5091 15.4641 6.7739 152 120 168
13.3809 3.0954 9.7955 155 120 173
7.7874 9.3932 5.4818 158 120 178
4.2344 10.3970 13.0724 161 120 183
11.2554 19.0606 11.1290 164 120 188
2.9850 12.8323 6.3315 167 120 193
18.7708 2.5980 9.1531 170 120 198
13.4747 19.3900 10.4380 173 120 203
7.6025 15.5258 15.7392 176 120 208
18.2735 14.4287 2.5520 179 120 213
19.8289 18.6136 8.7053 182 120 218
13.1860 16.6858 18.3377 185 120 223
14.4607 1.8119 1.3566 188 120 228
7.3256 9.1199 6.2266 191 120 233
14.9898 15.2739 7.9939 194 120 238
13.9608 3.8506 19.0278 197 120 243
4.8296 3.1245 7.6431 200 120 248
17.2610 11.9647 13.7222 203 120 253
16.3656 7.7181 19.1904 206 120 2
19.7465 10.7034 14.9873 209 120 7
17.0753 11.8328 2.6039 212 120 12
13.1361 9.1140 17.0850 215 120 17
4.1851 0.2355 3.5768 218 120 22
3.4161 7.6862 4.1559 221 120 27
6.6792 11.7814 3.0990 224 120 32
9.6917 7.1113 0.0982 227 120 37
13.4839 10.0302 15.5244 230 120 42
17.5371 0.9608 14.2821 233 120 47
9.1858 17.4849 2.3102 236 120 52
16.7756 8.5921 1.8540 239 120 57
9.2430 17.5425 1.4687 242 120 62
7.5746 1.6021 0.1411 245 120 67
16.5339 11.0149 11.4138 248 120 72
17.9857 1.6997 18.8868 251 120 77
15.0618 17.0179 16.3043 254 120 82
7.8760 0.4638 19.9507 1 120 87
12.6581 14.2335 13.9128 4 120 92
5.9750 13.1381 9.0152 7 120 97
4.5357 9.9907 9.3551 10 120 102
6.0386 14.9888 18.1779 13 120 107
11.9610 0.4639 10.8889 16 120 112
12.6172 16.3099 6.0686 19 120 117
4.6880 7.4749 3.2122 22 120 122
15.5870 0.5421 11.2958 25 120 127
16.6644 0.6480 3.2893 28 120 132
19.8388 6.1510 15.3576 31 120 137
0.5683 9.3392 0.8585 34 120 142
4.9092 0.3457 13.5874 37 120 147
9.0815 7.0401 8.4095 40 120 152
13.6044 5.1776 3.0919 43 120 157
0.8375 13.0763 13.2898 46 120 162
4.7848 10.3048 19.3876 49 120 167
9.4675 15.3226 7.0105 52 120 172
11.0415 15.5748 13.9585 55 120 177
11.9474 5.8933 1.1291 58 120 182
9.6447 14.4549 7.1941 61 120 187
14.5305 9.4194 1.3971 64 120 192
11.6186 10.9834 6.4346 67 120 197
3.9821 19.7112 11.7127 70 120 202
14.4888 0.8439 14.6660 73 120 207
3.2300 9.6622 7.8743 76 120 212
7.7783 15.8143 4.0525 79 120 217
18.9010 16.9990 9.8282 82 120 222
17.5249 10.9949 18.3666 85 120 227
9.7701 19.5523 14.8797 88 120 232
13.1649 19.8828 13.9099 91 120 237
4.8989 12.9460 3.3944 94 120 242
8.0950 14.0668 3.8153 97 120 247
8.4651 4.5874 8.2762 100 120 252
4.6254 14.0603 16.6928 103 120 1
9.6246 14.2460 15.0967 106 120 6
16.1542 16.0428 13.1465 109 120 11
14.7740 14.5875 10.4587 112 120 16
15.9208 3.7842 14.3979 115 120 21
12.7670 10.8144 12.0869 118 120 26
18.3660 15.7900 13.8129 121 120 31
18.0154 17.4266 6.5523 124 120 36
17.2149 17.7222 11.6469 127 120 41
18.5076 3.5092 16.0405 130 120 46
4.8527 7.9936 10.1598 133 120 51
8.4351 10.3365 1.8536 136 120 56
1.1799 14.4863 5.4073 139 120 61
5.5509 14.0053 15.1328 142 120 66
10.6995 16.3548 7.0130 145 120 71
17.8008 12.7647 16.9345 148 120 76
16.2781 14.0190 18.4831 151 120 81
15.0845 9.0042 2.3681 154 120 86
8.0669 12.2751 0.4592 157 120 91
11.9300 8.1589 9.5120 160 120 96
1.3246 1.5647 12.9689 163 120 101
5.3852 3.0868 17.3348 166 120 106
1.1429 14.0620 16.4610 169 120 111
17.9307 13.1852 1.0727 172 120 116
8.7517 17.4902 8.2106 175 120 121
10.7071 14.8560 11.5408 178 120 126
7.2116 11.8440 9.2894 181 120 131
6.6545 1.3962 5.2081 184 120 136
19.9018 5.8546 6.9675 187 120 141
19.6217 2.0553 5.0556 190 120 146
7.5326 9.2818 8.0990 193 120 151
5.4904 3.0078 11.1083 196 120 156
3.3796 0.0730 15.1828 199 120 161
15.2727 7.2235 17.6380 202 120 166
3.1858 18.0195 13.6282 205 120 171
13.4048 1.0006 15.2350 208 120 176
3.3813 10.7137 11.0045 211 120 181
1.2096 5.9055 18.3895 214 120 186
15.1777 6.1572 19.5430 217 120 191
1.4411 13.0515 16.0719 220 120 196
16.9525 12.9368 14.7882 223 120 201
4.9262 15.6516 13.6125 226 120 206
11.4799 5.3378 13.4420 229 120 211
0.9928 10.0445 13.1487 232 120 216
6.7701 11.9983 1.1181 235 120 221
